# .PCD v0.7 - Point Cloud Data file format
VERSION 0.7
FIELDS x y z
SIZE 4 4 4
TYPE F F F
COUNT 1 1 1
WIDTH 1332
HEIGHT 1
VIEWPOINT 0 0 0 1 0 0 0
POINTS 1332
DATA ascii
-0.17864667 -0.0093133338 0.88900006
-0.17735143 -0.0093342857 0.89100003
-0.17624572 -0.0093657151 0.89400005
-0.17493334 -0.0093866661 0.89600003
-0.17361334 -0.009407619 0.89800006
-0.17190287 -0.009407619 0.89800006
-0.17076096 -0.0094390474 0.90100002
-0.16979524 -0.0094809523 0.90500003
-0.16862859 -0.0095123816 0.90800005
-0.16726667 -0.0095333336 0.91000003
-0.16607906 -0.009564762 0.91300005
-0.1647 -0.0095857149 0.91500002
-0.16384763 -0.0096380953 0.92000002
-0.16244763 -0.0096590482 0.92200005
-0.16156286 -0.0097114285 0.92700005
-0.16031431 -0.0097428579 0.93000007
-0.15939525 -0.0097952392 0.93500006
-0.15795143 -0.0098161902 0.93700004
-0.15616667 -0.0098161902 0.93700004
-0.1548762 -0.0098476186 0.94000006
-0.15341143 -0.0098685715 0.94200003
-0.1521 -0.0098999999 0.94500005
-0.15077715 -0.0099314293 0.94800007
-0.14928573 -0.0099523813 0.95000005
-0.1479419 -0.0099838106 0.95300007
-0.14643334 -0.010004762 0.95500004
-0.14506857 -0.010036191 0.95800006
-0.14369237 -0.010067619 0.96100003
-0.1418619 -0.010067619 0.96100003
-0.14163429 -0.010182858 0.97200006
-0.14007048 -0.01020381 0.97400004
-0.13864097 -0.010235239 0.97700006
-0.1372 -0.010266667 0.98000002
-0.13533334 -0.010266667 0.98000002
-0.13387524 -0.010298096 0.98300004
-0.13227144 -0.010319049 0.98500007
-0.13079238 -0.010350476 0.98800004
-0.12969334 -0.010413333 0.99400002
-0.12857142 -0.010476191 1
-0.12704667 -0.010507619 1.003
-0.12551048 -0.010539047 1.006
-0.12384 -0.01056 1.008
-0.12228286 -0.010591429 1.011
-0.12035715 -0.010591429 1.011
-0.11878286 -0.010622857 1.0140001
-0.11719715 -0.010654286 1.0170001
-0.11560001 -0.010685715 1.0200001
-0.11399143 -0.010717143 1.023
-0.11237143 -0.010748572 1.026
-0.11041714 -0.010748572 1.026
-0.30443716 -0.0071914289 0.83900005
-0.30211714 -0.0071742856 0.83700001
-0.29980478 -0.0071571432 0.83500004
-0.29750001 -0.0071400008 0.83300006
-0.29591334 -0.0071400008 0.83300006
-0.29362002 -0.007122857 0.83100003
-0.29203716 -0.007122857 0.83100003
-0.28905618 -0.0070885718 0.82700002
-0.28678575 -0.0070714285 0.82500005
-0.28452286 -0.0070542856 0.82300001
-0.28226763 -0.0070371432 0.82100004
-0.28070381 -0.0070371432 0.82100004
-0.27914003 -0.0070371432 0.82100004
-0.27757621 -0.0070371432 0.82100004
-0.27534002 -0.0070200008 0.81900007
-0.27311143 -0.007002857 0.81700003
-0.27155527 -0.007002857 0.81700003
-0.26999906 -0.007002857 0.81700003
-0.26844287 -0.007002857 0.81700003
-0.26688668 -0.007002857 0.81700003
-0.26468095 -0.0069857147 0.81500006
-0.26280573 -0.0069771428 0.81400001
-0.26125523 -0.0069771428 0.81400001
-0.25906667 -0.0069600004 0.81200004
-0.25688571 -0.0069428575 0.81000006
-0.25534287 -0.0069428575 0.81000006
-0.25317332 -0.0069257147 0.80800003
-0.2516343 -0.0069257147 0.80800003
-0.24947619 -0.0069085718 0.80600005
-0.24794096 -0.0069085718 0.80600005
-0.24640572 -0.0069085718 0.80600005
-0.24487048 -0.0069085718 0.80600005
-0.24333525 -0.0069085718 0.80600005
-0.24180001 -0.0069085718 0.80600005
-0.24026477 -0.0069085718 0.80600005
-0.23813714 -0.0068914285 0.80400002
-0.23660572 -0.0068914285 0.80400002
-0.23507428 -0.0068914285 0.80400002
-0.23296192 -0.0068742861 0.80200005
-0.2314343 -0.0068742861 0.80200005
-0.22990668 -0.0068742861 0.80200005
-0.22837907 -0.0068742861 0.80200005
-0.22685143 -0.0068742861 0.80200005
-0.2247619 -0.0068571432 0.80000001
-0.2232381 -0.0068571432 0.80000001
-0.22171429 -0.0068571432 0.80000001
-0.22074096 -0.0068742861 0.80200005
-0.21921334 -0.0068742861 0.80200005
-0.21877144 -0.0069085718 0.80600005
-0.21777524 -0.0069257147 0.80800003
-0.21730667 -0.0069600004 0.81200004
-0.21576001 -0.0069600004 0.81200004
-0.21474095 -0.0069771428 0.81400001
-0.2134524 -0.0069857147 0.81500006
-0.21242002 -0.007002857 0.81700003
-0.21138002 -0.0070200008 0.81900007
-0.21033239 -0.0070371432 0.82100004
-0.20927714 -0.0070542856 0.82300001
-0.2082143 -0.0070714285 0.82500005
-0.20714381 -0.0070885718 0.82700002
-0.20606573 -0.0071057146 0.82900006
-0.20547333 -0.0071400008 0.83300006
-0.20437621 -0.0071571432 0.83500004
-0.20327142 -0.0071742856 0.83700001
-0.20215906 -0.0071914289 0.83900005
-0.20056096 -0.0071914289 0.83900005
-0.19943716 -0.0072085718 0.84100002
-0.19830573 -0.0072257146 0.84300005
-0.19716667 -0.0072428575 0.84500003
-0.19671428 -0.0072857141 0.85000002
-0.19509524 -0.0072857141 0.85000002
-0.19393145 -0.0073028579 0.85200006
-0.19321144 -0.0073371432 0.85600007
-0.1924762 -0.0073714289 0.86000001
-0.19194762 -0.0074142865 0.86500007
-0.19030002 -0.0074142865 0.86500007
-0.18952477 -0.0074485713 0.86900002
-0.18786952 -0.0074485713 0.86900002
-0.18664286 -0.0074657151 0.87100005
-0.18498382 -0.0074657151 0.87100005
-0.18374571 -0.0074828574 0.87300003
-0.1831257 -0.0075257146 0.87800002
-0.18186668 -0.0075428574 0.88000005
-0.1806 -0.0075600003 0.88200003
-0.17993428 -0.0076028574 0.88700002
-0.17864667 -0.0076200003 0.88900006
-0.17735143 -0.0076371427 0.89100003
-0.17624572 -0.0076628574 0.89400005
-0.17493334 -0.0076800003 0.89600003
-0.17361334 -0.0076971436 0.89800006
-0.17190287 -0.0076971436 0.89800006
-0.17076096 -0.0077228574 0.90100002
-0.16979524 -0.0077571431 0.90500003
-0.16862859 -0.0077828579 0.90800005
-0.16781811 -0.0078257145 0.91300005
-0.16607906 -0.0078257145 0.91300005
-0.16506 -0.0078600002 0.91700006
-0.16384763 -0.0078857141 0.92000002
-0.16244763 -0.0079028569 0.92200005
-0.16156286 -0.0079457145 0.92700005
-0.16031431 -0.0079714293 0.93000007
-0.15939525 -0.0080142869 0.93500006
-0.15795143 -0.0080314288 0.93700004
-0.15616667 -0.0080314288 0.93700004
-0.1548762 -0.0080571435 0.94000006
-0.15341143 -0.0080742864 0.94200003
-0.15161714 -0.0080742864 0.94200003
-0.15077715 -0.008125715 0.94800007
-0.14928573 -0.0081428569 0.95000005
-0.1479419 -0.0081685716 0.95300007
-0.14643334 -0.0081857145 0.95500004
-0.14506857 -0.0082114292 0.95800006
-0.14369237 -0.008237143 0.96100003
-0.1426 -0.0082799997 0.96600002
-0.14119714 -0.0083057145 0.96900004
-0.14007048 -0.0083485721 0.97400004
-0.13864097 -0.0083742859 0.97700006
-0.1372 -0.0083999997 0.98000002
-0.13533334 -0.0083999997 0.98000002
-0.13387524 -0.0084257144 0.98300004
-0.13227144 -0.0084428573 0.98500007
-0.13079238 -0.0084685711 0.98800004
-0.12969334 -0.0085199997 0.99400002
-0.12857142 -0.0085714282 1
-0.12704667 -0.008597143 1.003
-0.12551048 -0.0086228577 1.006
-0.12384 -0.0086400006 1.008
-0.12192 -0.0086400006 1.008
-0.12035715 -0.0086657144 1.011
-0.11878286 -0.0086914292 1.0140001
-0.11719715 -0.0087171439 1.0170001
-0.11594 -0.0087685715 1.023
-0.11399143 -0.0087685715 1.023
-0.11237143 -0.0087942854 1.026
-0.11084762 -0.008828572 1.0300001
-0.30443716 -0.0055933334 0.83900005
-0.30211714 -0.0055800001 0.83700001
-0.29908669 -0.0055533336 0.83300006
-0.29750001 -0.0055533336 0.83300006
-0.29591334 -0.0055533336 0.83300006
-0.29362002 -0.0055400003 0.83100003
-0.29203716 -0.0055400003 0.83100003
-0.28905618 -0.0055133332 0.82700002
-0.28678575 -0.0055000004 0.82500005
-0.28452286 -0.0054866667 0.82300001
-0.28295523 -0.0054866667 0.82300001
-0.28070381 -0.0054733334 0.82100004
-0.27914003 -0.0054733334 0.82100004
-0.27757621 -0.0054733334 0.82100004
-0.27534002 -0.0054600001 0.81900007
-0.27311143 -0.0054466669 0.81700003
-0.2708905 -0.0054333336 0.81500006
-0.26999906 -0.0054466669 0.81700003
-0.26844287 -0.0054466669 0.81700003
-0.26623335 -0.0054333336 0.81500006
-0.26468095 -0.0054333336 0.81500006
-0.26280573 -0.0054266667 0.81400001
-0.26061335 -0.0054133334 0.81200004
-0.25906667 -0.0054133334 0.81200004
-0.25688571 -0.0054000006 0.81000006
-0.25534287 -0.0054000006 0.81000006
-0.25317332 -0.0053866669 0.80800003
-0.2516343 -0.0053866669 0.80800003
-0.25009525 -0.0053866669 0.80800003
-0.24794096 -0.0053733336 0.80600005
-0.24640572 -0.0053733336 0.80600005
-0.24487048 -0.0053733336 0.80600005
-0.24273144 -0.0053600003 0.80400002
-0.2412 -0.0053600003 0.80400002
-0.23966858 -0.0053600003 0.80400002
-0.23813714 -0.0053600003 0.80400002
-0.23660572 -0.0053600003 0.80400002
-0.23507428 -0.0053600003 0.80400002
-0.23296192 -0.005346667 0.80200005
-0.2314343 -0.005346667 0.80200005
-0.22990668 -0.005346667 0.80200005
-0.22837907 -0.005346667 0.80200005
-0.22685143 -0.005346667 0.80200005
-0.2247619 -0.0053333333 0.80000001
-0.2232381 -0.0053333333 0.80000001
-0.22171429 -0.0053333333 0.80000001
-0.22074096 -0.005346667 0.80200005
-0.21921334 -0.005346667 0.80200005
-0.21877144 -0.0053733336 0.80600005
-0.21831429 -0.0054000006 0.81000006
-0.21730667 -0.0054133334 0.81200004
-0.21576001 -0.0054133334 0.81200004
-0.21474095 -0.0054266667 0.81400001
-0.2134524 -0.0054333336 0.81500006
-0.21242002 -0.0054466669 0.81700003
-0.21086381 -0.0054466669 0.81700003
-0.21033239 -0.0054733334 0.82100004
-0.20927714 -0.0054866667 0.82300001
-0.2082143 -0.0055000004 0.82500005
-0.20714381 -0.0055133332 0.82700002
-0.20606573 -0.005526667 0.82900006
-0.20498 -0.0055400003 0.83100003
-0.20388667 -0.0055533336 0.83300006
-0.20327142 -0.0055800001 0.83700001
-0.20167714 -0.0055800001 0.83700001
-0.20056096 -0.0055933334 0.83900005
-0.19943716 -0.0056066667 0.84100002
-0.19830573 -0.0056200004 0.84300005
-0.19716667 -0.0056333332 0.84500003
-0.19555715 -0.0056333332 0.84500003
-0.1955543 -0.0056799999 0.85200006
-0.19393145 -0.0056799999 0.85200006
-0.19321144 -0.005706667 0.85600007
-0.1924762 -0.0057333331 0.86000001
-0.19128191 -0.0057466668 0.86200005
-0.19030002 -0.005766667 0.86500007
-0.18908858 -0.0057800002 0.86700004
-0.18830191 -0.0058066668 0.87100005
-0.18664286 -0.0058066668 0.87100005
-0.18498382 -0.0058066668 0.87100005
-0.18374571 -0.0058200001 0.87300003
-0.1831257 -0.005853333 0.87800002
-0.18186668 -0.0058666668 0.88000005
-0.1806 -0.0058800001 0.88200003
-0.17993428 -0.0059133335 0.88700002
-0.17864667 -0.0059266672 0.88900006
-0.17735143 -0.0059400005 0.89100003
-0.17624572 -0.0059600002 0.89400005
-0.17493334 -0.0059733335 0.89600003
-0.17361334 -0.0059866668 0.89800006
-0.17247714 -0.0060066669 0.90100002
-0.17076096 -0.0060066669 0.90100002
-0.17035811 -0.0060533336 0.90800005
-0.16900001 -0.0060666669 0.91000003
-0.16781811 -0.0060866671 0.91300005
-0.16644286 -0.0061000003 0.91500002
-0.16506 -0.0061133341 0.91700006
-0.16384763 -0.0061333333 0.92000002
-0.16244763 -0.0061466671 0.92200005
-0.16121429 -0.0061666667 0.92500007
-0.16031431 -0.0062000002 0.93000007
-0.15888381 -0.0062133335 0.93200004
-0.15761429 -0.0062333336 0.93500006
-0.15616667 -0.0062466664 0.93700004
-0.1548762 -0.006266667 0.94000006
-0.15341143 -0.0062800003 0.94200003
-0.1521 -0.0063 0.94500005
-0.15077715 -0.0063200006 0.94800007
-0.14897144 -0.0063200006 0.94800007
-0.1479419 -0.0063533336 0.95300007
-0.14643334 -0.0063666669 0.95500004
-0.14506857 -0.006386667 0.95800006
-0.14369237 -0.0064066667 0.96100003
-0.14215715 -0.00642 0.96300006
-0.14163429 -0.0064800004 0.97200006
-0.14007048 -0.0064933337 0.97400004
-0.13864097 -0.0065133334 0.97700006
-0.1372 -0.0065333336 0.98000002
-0.13533334 -0.0065333336 0.98000002
-0.13387524 -0.0065533337 0.98300004
-0.13227144 -0.006566667 0.98500007
-0.13079238 -0.0065866672 0.98800004
-0.12969334 -0.006626667 0.99400002
-0.12857142 -0.0066666668 1
-0.12704667 -0.0066866665 1.003
-0.12551048 -0.0067066667 1.006
-0.12384 -0.0067199999 1.008
-0.12192 -0.0067199999 1.008
-0.12035715 -0.0067400001 1.011
-0.11878286 -0.0067600003 1.0140001
-0.11719715 -0.0067800004 1.0170001
-0.11560001 -0.0068000006 1.0200001
-0.11399143 -0.0068200002 1.023
-0.11280953 -0.006866667 1.0300001
-0.11084762 -0.006866667 1.0300001
-0.30211714 -0.0039857142 0.83700001
-0.29908669 -0.0039666672 0.83300006
-0.29678571 -0.0039571431 0.83100003
-0.29520285 -0.0039571431 0.83100003
-0.29362002 -0.0039571431 0.83100003
-0.2913343 -0.0039476193 0.82900006
-0.28905618 -0.0039380956 0.82700002
-0.28678575 -0.0039285715 0.82500005
-0.28452286 -0.0039190478 0.82300001
-0.28226763 -0.0039095236 0.82100004
-0.28070381 -0.0039095236 0.82100004
-0.27914003 -0.0039095236 0.82100004
-0.27690002 -0.0039000001 0.81900007
-0.27534002 -0.0039000001 0.81900007
-0.27311143 -0.0038904762 0.81700003
-0.2708905 -0.0038809527 0.81500006
-0.2693381 -0.0038809527 0.81500006
-0.26778573 -0.0038809527 0.81500006
-0.26623335 -0.0038809527 0.81500006
-0.2643562 -0.0038761906 0.81400001
-0.26280573 -0.0038761906 0.81400001
-0.26061335 -0.0038666669 0.81200004
-0.25842857 -0.003857143 0.81000006
-0.25688571 -0.003857143 0.81000006
-0.25471237 -0.0038476191 0.80800003
-0.25317332 -0.0038476191 0.80800003
-0.2516343 -0.0038476191 0.80800003
-0.24947619 -0.0038380953 0.80600005
-0.24794096 -0.0038380953 0.80600005
-0.24640572 -0.0038380953 0.80600005
-0.24487048 -0.0038380953 0.80600005
-0.24273144 -0.0038285714 0.80400002
-0.2412 -0.0038285714 0.80400002
-0.23966858 -0.0038285714 0.80400002
-0.23813714 -0.0038285714 0.80400002
-0.23660572 -0.0038285714 0.80400002
-0.23507428 -0.0038285714 0.80400002
-0.23296192 -0.0038190477 0.80200005
-0.2314343 -0.0038190477 0.80200005
-0.22990668 -0.0038190477 0.80200005
-0.22837907 -0.0038190477 0.80200005
-0.22628571 -0.0038095238 0.80000001
-0.2247619 -0.0038095238 0.80000001
-0.2232381 -0.0038095238 0.80000001
-0.22171429 -0.0038095238 0.80000001
-0.22019047 -0.0038095238 0.80000001
-0.21921334 -0.0038190477 0.80200005
-0.21822856 -0.0038285714 0.80400002
-0.21831429 -0.003857143 0.81000006
-0.21730667 -0.0038666669 0.81200004
-0.21629143 -0.0038761906 0.81400001
-0.21500477 -0.0038809527 0.81500006
-0.2134524 -0.0038809527 0.81500006
-0.21242002 -0.0038904762 0.81700003
-0.21086381 -0.0038904762 0.81700003
-0.21033239 -0.0039095236 0.82100004
-0.20876859 -0.0039095236 0.82100004
-0.2082143 -0.0039285715 0.82500005
-0.20764476 -0.0039476193 0.82900006
-0.20606573 -0.0039476193 0.82900006
-0.20498 -0.0039571431 0.83100003
-0.20388667 -0.0039666672 0.83300006
-0.20278572 -0.0039761905 0.83500004
-0.20167714 -0.0039857142 0.83700001
-0.20056096 -0.0039952383 0.83900005
-0.19991145 -0.0040142857 0.84300005
-0.19830573 -0.0040142857 0.84300005
-0.19716667 -0.0040238099 0.84500003
-0.19671428 -0.0040476192 0.85000002
-0.1955543 -0.0040571429 0.85200006
-0.19438666 -0.0040666666 0.85400003
-0.19366287 -0.004085714 0.85800004
-0.19292381 -0.0041047623 0.86200005
-0.19194762 -0.0041190479 0.86500007
-0.19030002 -0.0041190479 0.86500007
-0.18908858 -0.0041285716 0.86700004
-0.18786952 -0.0041380953 0.86900002
-0.18664286 -0.0041476195 0.87100005
-0.18540858 -0.0041571432 0.87300003
-0.18374571 -0.0041571432 0.87300003
-0.1831257 -0.0041809524 0.87800002
-0.18186668 -0.0041904761 0.88000005
-0.18100953 -0.004209524 0.88400006
-0.17993428 -0.0042238096 0.88700002
-0.17864667 -0.0042333333 0.88900006
-0.17735143 -0.004242857 0.89100003
-0.17624572 -0.004257143 0.89400005
-0.17493334 -0.0042666667 0.89600003
-0.17361334 -0.0042761909 0.89800006
-0.17247714 -0.0042904764 0.90100002
-0.17076096 -0.0042904764 0.90100002
-0.17035811 -0.0043238099 0.90800005
-0.16900001 -0.0043333336 0.91000003
-0.16781811 -0.0043476191 0.91300005
-0.16644286 -0.0043571433 0.91500002
-0.16506 -0.0043666665 0.91700006
-0.16384763 -0.0043809521 0.92000002
-0.16244763 -0.0043904763 0.92200005
-0.16121429 -0.0044047623 0.92500007
-0.15979715 -0.004414286 0.92700005
-0.15854287 -0.004428572 0.93000007
-0.15761429 -0.0044523813 0.93500006
-0.15616667 -0.004461905 0.93700004
-0.15520571 -0.0044857142 0.94200003
-0.15390001 -0.0045000003 0.94500005
-0.1521 -0.0045000003 0.94500005
-0.15077715 -0.0045142858 0.94800007
-0.14928573 -0.0045238095 0.95000005
-0.1479419 -0.0045380956 0.95300007
-0.14643334 -0.0045476193 0.95500004
-0.14506857 -0.0045619053 0.95800006
-0.14369237 -0.0045761908 0.96100003
-0.14215715 -0.0045857145 0.96300006
-0.14119714 -0.0046142861 0.96900004
-0.14007048 -0.0046380954 0.97400004
-0.13864097 -0.0046523809 0.97700006
-0.1372 -0.0046666665 0.98000002
-0.13533334 -0.0046666665 0.98000002
-0.13387524 -0.0046809525 0.98300004
-0.13227144 -0.0046904762 0.98500007
-0.13079238 -0.0047047618 0.98800004
-0.12969334 -0.0047333334 0.99400002
-0.12857142 -0.0047619045 1
-0.12704667 -0.004776191 1.003
-0.12551048 -0.0047904765 1.006
-0.12384 -0.0047999998 1.008
-0.12228286 -0.0048142858 1.011
-0.12071429 -0.0048285713 1.0140001
-0.11878286 -0.0048285713 1.0140001
-0.11719715 -0.0048428574 1.0170001
-0.11560001 -0.0048571434 1.0200001
-0.11399143 -0.0048714285 1.023
-0.11313809 -0.0049190475 1.033
-0.11149333 -0.0049333335 1.036
-0.29836857 -0.0023742858 0.83100003
-0.29678571 -0.0023742858 0.83100003
-0.29520285 -0.0023742858 0.83100003
-0.29362002 -0.0023742858 0.83100003
-0.2913343 -0.0023685717 0.82900006
-0.28905618 -0.0023628571 0.82700002
-0.28678575 -0.002357143 0.82500005
-0.28452286 -0.0023514286 0.82300001
-0.28226763 -0.0023457143 0.82100004
-0.28070381 -0.0023457143 0.82100004
-0.27914003 -0.0023457143 0.82100004
-0.27690002 -0.0023400001 0.81900007
-0.27534002 -0.0023400001 0.81900007
-0.27311143 -0.002334286 0.81700003
-0.2708905 -0.0023285716 0.81500006
-0.2693381 -0.0023285716 0.81500006
-0.26778573 -0.0023285716 0.81500006
-0.26623335 -0.0023285716 0.81500006
-0.2643562 -0.0023257141 0.81400001
-0.26280573 -0.0023257141 0.81400001
-0.25997147 -0.0023142861 0.81000006
-0.25842857 -0.0023142861 0.81000006
-0.25625142 -0.0023085715 0.80800003
-0.25471237 -0.0023085715 0.80800003
-0.25317332 -0.0023085715 0.80800003
-0.2516343 -0.0023085715 0.80800003
-0.24947619 -0.0023028573 0.80600005
-0.24794096 -0.0023028573 0.80600005
-0.24640572 -0.0023028573 0.80600005
-0.24487048 -0.0023028573 0.80600005
-0.24333525 -0.0023028573 0.80600005
-0.2412 -0.002297143 0.80400002
-0.23966858 -0.002297143 0.80400002
-0.23813714 -0.002297143 0.80400002
-0.23660572 -0.002297143 0.80400002
-0.23507428 -0.002297143 0.80400002
-0.23296192 -0.0022914286 0.80200005
-0.2314343 -0.0022914286 0.80200005
-0.22990668 -0.0022914286 0.80200005
-0.22837907 -0.0022914286 0.80200005
-0.22628571 -0.0022857143 0.80000001
-0.2247619 -0.0022857143 0.80000001
-0.2232381 -0.0022857143 0.80000001
-0.22171429 -0.0022857143 0.80000001
-0.22074096 -0.0022914286 0.80200005
-0.21921334 -0.0022914286 0.80200005
-0.21822856 -0.002297143 0.80400002
-0.21777524 -0.0023085715 0.80800003
-0.21730667 -0.00232 0.81200004
-0.21629143 -0.0023257141 0.81400001
-0.21500477 -0.0023285716 0.81500006
-0.21397619 -0.002334286 0.81700003
-0.21242002 -0.002334286 0.81700003
-0.21086381 -0.002334286 0.81700003
-0.21033239 -0.0023457143 0.82100004
-0.20876859 -0.0023457143 0.82100004
-0.2082143 -0.002357143 0.82500005
-0.20764476 -0.0023685717 0.82900006
-0.20606573 -0.0023685717 0.82900006
-0.20498 -0.0023742858 0.83100003
-0.20388667 -0.00238 0.83300006
-0.20278572 -0.0023857143 0.83500004
-0.20167714 -0.0023914287 0.83700001
-0.20056096 -0.002397143 0.83900005
-0.19991145 -0.0024085718 0.84300005
-0.1987762 -0.0024142857 0.84500003
-0.19716667 -0.0024142857 0.84500003
-0.19671428 -0.0024285717 0.85000002
-0.1955543 -0.0024342858 0.85200006
-0.19438666 -0.00244 0.85400003
-0.19366287 -0.0024514287 0.85800004
-0.19292381 -0.0024628574 0.86200005
-0.19128191 -0.0024628574 0.86200005
-0.19030002 -0.0024714288 0.86500007
-0.18908858 -0.002477143 0.86700004
-0.18786952 -0.0024828573 0.86900002
-0.18664286 -0.0024885715 0.87100005
-0.18540858 -0.0024942856 0.87300003
-0.18374571 -0.0024942856 0.87300003
-0.1831257 -0.0025085714 0.87800002
-0.18186668 -0.0025142857 0.88000005
-0.18100953 -0.0025257145 0.88400006
-0.17993428 -0.0025342857 0.88700002
-0.17864667 -0.0025400002 0.88900006
-0.17735143 -0.0025457144 0.89100003
-0.17624572 -0.0025542858 0.89400005
-0.17493334 -0.0025600002 0.89600003
-0.17361334 -0.0025657145 0.89800006
-0.17247714 -0.0025742857 0.90100002
-0.17076096 -0.0025742857 0.90100002
-0.17035811 -0.0025942859 0.90800005
-0.16900001 -0.0026 0.91000003
-0.16818571 -0.0026142858 0.91500002
-0.16644286 -0.0026142858 0.91500002
-0.16506 -0.0026200002 0.91700006
-0.16384763 -0.0026285714 0.92000002
-0.16244763 -0.0026342859 0.92200005
-0.16121429 -0.0026428571 0.92500007
-0.15979715 -0.0026485715 0.92700005
-0.15854287 -0.0026571429 0.93000007
-0.15710858 -0.0026628571 0.93200004
-0.15616667 -0.0026771429 0.93700004
-0.1548762 -0.0026857145 0.94000006
-0.15390001 -0.0027000001 0.94500005
-0.15258285 -0.0027085717 0.94800007
-0.15077715 -0.0027085717 0.94800007
-0.14928573 -0.0027142859 0.95000005
-0.14825238 -0.0027285716 0.95500004
-0.14689334 -0.0027371428 0.95800006
-0.14506857 -0.0027371428 0.95800006
-0.14369237 -0.0027457143 0.96100003
-0.14215715 -0.0027514286 0.96300006
-0.14119714 -0.0027685715 0.96900004
-0.14007048 -0.0027828573 0.97400004
-0.13864097 -0.0027914287 0.97700006
-0.1372 -0.0028000001 0.98000002
-0.13533334 -0.0028000001 0.98000002
-0.13387524 -0.0028085716 0.98300004
-0.13227144 -0.0028142859 0.98500007
-0.13079238 -0.0028228574 0.98800004
-0.12969334 -0.00284 0.99400002
-0.12857142 -0.0028571428 1
-0.12704667 -0.0028657143 1.003
-0.12551048 -0.0028742859 1.006
-0.12420858 -0.0028885715 1.011
-0.12228286 -0.0028885715 1.011
-0.12071429 -0.0028971431 1.0140001
-0.11878286 -0.0028971431 1.0140001
-0.11719715 -0.0029057143 1.0170001
-0.11560001 -0.002914286 1.0200001
-0.11399143 -0.0029228572 1.023
-0.11313809 -0.0029514285 1.033
-0.11149333 -0.00296 1.036
-0.30067337 -0.0007933334 0.83300006
-0.29836857 -0.00079142861 0.83100003
-0.29678571 -0.00079142861 0.83100003
-0.29520285 -0.00079142861 0.83100003
-0.29362002 -0.00079142861 0.83100003
-0.2913343 -0.00078952388 0.82900006
-0.28835717 -0.00078571431 0.82500005
-0.28609049 -0.00078380952 0.82300001
-0.28452286 -0.00078380952 0.82300001
-0.28226763 -0.00078190479 0.82100004
-0.28070381 -0.00078190479 0.82100004
-0.27846003 -0.00078000006 0.81900007
-0.27690002 -0.00078000006 0.81900007
-0.27534002 -0.00078000006 0.81900007
-0.27311143 -0.00077809527 0.81700003
-0.2708905 -0.00077619054 0.81500006
-0.2693381 -0.00077619054 0.81500006
-0.26778573 -0.00077619054 0.81500006
-0.26623335 -0.00077619054 0.81500006
-0.2643562 -0.00077523809 0.81400001
-0.26216 -0.00077333336 0.81200004
-0.25997147 -0.00077142863 0.81000006
-0.25842857 -0.00077142863 0.81000006
-0.25625142 -0.00076952385 0.80800003
-0.25471237 -0.00076952385 0.80800003
-0.25317332 -0.00076952385 0.80800003
-0.2516343 -0.00076952385 0.80800003
-0.24947619 -0.00076761912 0.80600005
-0.24794096 -0.00076761912 0.80600005
-0.24640572 -0.00076761912 0.80600005
-0.24487048 -0.00076761912 0.80600005
-0.24333525 -0.00076761912 0.80600005
-0.2412 -0.00076571427 0.80400002
-0.23966858 -0.00076571427 0.80400002
-0.23813714 -0.00076571427 0.80400002
-0.23660572 -0.00076571427 0.80400002
-0.23507428 -0.00076571427 0.80400002
-0.23296192 -0.00076380954 0.80200005
-0.23201142 -0.00076571427 0.80400002
-0.22990668 -0.00076380954 0.80200005
-0.22837907 -0.00076380954 0.80200005
-0.22685143 -0.00076380954 0.80200005
-0.2247619 -0.00076190475 0.80000001
-0.2232381 -0.00076190475 0.80000001
-0.22171429 -0.00076190475 0.80000001
-0.22074096 -0.00076380954 0.80200005
-0.21976 -0.00076571427 0.80400002
-0.21877144 -0.00076761912 0.80600005
-0.21777524 -0.00076952385 0.80800003
-0.21677144 -0.00077142863 0.81000006
-0.21576001 -0.00077333336 0.81200004
-0.21474095 -0.00077523809 0.81400001
-0.2134524 -0.00077619054 0.81500006
-0.21242002 -0.00077809527 0.81700003
-0.21086381 -0.00077809527 0.81700003
-0.21033239 -0.00078190479 0.82100004
-0.20927714 -0.00078380952 0.82300001
-0.2082143 -0.00078571431 0.82500005
-0.20764476 -0.00078952388 0.82900006
-0.20606573 -0.00078952388 0.82900006
-0.20498 -0.00079142861 0.83100003
-0.20388667 -0.0007933334 0.83300006
-0.20278572 -0.00079523813 0.83500004
-0.20167714 -0.00079714286 0.83700001
-0.20056096 -0.00079904764 0.83900005
-0.19991145 -0.00080285716 0.84300005
-0.1987762 -0.00080476195 0.84500003
-0.19716667 -0.00080476195 0.84500003
-0.19671428 -0.0008095238 0.85000002
-0.19601335 -0.00081333338 0.85400003
-0.19484192 -0.00081523816 0.85600007
-0.19366287 -0.00081714289 0.85800004
-0.19292381 -0.00082095241 0.86200005
-0.19128191 -0.00082095241 0.86200005
-0.19030002 -0.00082380959 0.86500007
-0.18908858 -0.00082571432 0.86700004
-0.18786952 -0.00082761905 0.86900002
-0.18664286 -0.00082952384 0.87100005
-0.18540858 -0.00083142857 0.87300003
-0.18374571 -0.00083142857 0.87300003
-0.1831257 -0.00083619048 0.87800002
-0.18228 -0.00083999999 0.88200003
-0.18100953 -0.00084190484 0.88400006
-0.17993428 -0.0008447619 0.88700002
-0.17864667 -0.00084666669 0.88900006
-0.17735143 -0.00084857148 0.89100003
-0.17624572 -0.0008514286 0.89400005
-0.17493334 -0.00085333333 0.89600003
-0.17361334 -0.00085523812 0.89800006
-0.17247714 -0.00085809524 0.90100002
-0.17114 -0.00086000003 0.90300006
-0.17035811 -0.00086476194 0.90800005
-0.16900001 -0.00086666667 0.91000003
-0.16781811 -0.00086952385 0.91300005
-0.16644286 -0.00087142858 0.91500002
-0.16506 -0.00087333337 0.91700006
-0.16384763 -0.00087619049 0.92000002
-0.16244763 -0.00087809528 0.92200005
-0.16121429 -0.00088095246 0.92500007
-0.15979715 -0.00088285719 0.92700005
-0.15854287 -0.00088571431 0.93000007
-0.15710858 -0.0008876191 0.93200004
-0.15616667 -0.00089238095 0.93700004
-0.1548762 -0.00089523813 0.94000006
-0.15341143 -0.00089714286 0.94200003
-0.15258285 -0.00090285722 0.94800007
-0.15077715 -0.00090285722 0.94800007
-0.14928573 -0.00090476195 0.95000005
-0.14825238 -0.00090952386 0.95500004
-0.14689334 -0.00091238099 0.95800006
-0.14552286 -0.00091523811 0.96100003
-0.14369237 -0.00091523811 0.96100003
-0.14215715 -0.0009171429 0.96300006
-0.14119714 -0.00092285714 0.96900004
-0.13978286 -0.00092571432 0.97200006
-0.13864097 -0.00093047624 0.97700006
-0.1372 -0.00093333336 0.98000002
-0.13533334 -0.00093333336 0.98000002
-0.13387524 -0.00093619048 0.98300004
-0.13227144 -0.00093809533 0.98500007
-0.13079238 -0.00094095239 0.98800004
-0.12930192 -0.00094380957 0.99100006
-0.12818572 -0.00094952382 0.99700004
-0.12666667 -0.00095238094 1
-0.12551048 -0.00095809525 1.006
-0.12420858 -0.00096285716 1.011
-0.12228286 -0.00096285716 1.011
-0.12071429 -0.00096571434 1.0140001
-0.11878286 -0.00096571434 1.0140001
-0.11719715 -0.00096857152 1.0170001
-0.11594 -0.00097428571 1.023
-0.11432571 -0.00097714283 1.026
-0.11313809 -0.00098380947 1.033
-0.11117047 -0.00098380947 1.033
-0.30067337 0.0007933334 0.83300006
-0.29908669 0.0007933334 0.83300006
-0.29678571 0.00079142861 0.83100003
-0.29520285 0.00079142861 0.83100003
-0.29362002 0.00079142861 0.83100003
-0.2913343 0.00078952388 0.82900006
-0.28835717 0.00078571431 0.82500005
-0.28609049 0.00078380952 0.82300001
-0.28452286 0.00078380952 0.82300001
-0.28226763 0.00078190479 0.82100004
-0.28070381 0.00078190479 0.82100004
-0.27846003 0.00078000006 0.81900007
-0.27690002 0.00078000006 0.81900007
-0.27534002 0.00078000006 0.81900007
-0.27311143 0.00077809527 0.81700003
-0.2708905 0.00077619054 0.81500006
-0.2693381 0.00077619054 0.81500006
-0.26778573 0.00077619054 0.81500006
-0.26623335 0.00077619054 0.81500006
-0.2643562 0.00077523809 0.81400001
-0.26216 0.00077333336 0.81200004
-0.25997147 0.00077142863 0.81000006
-0.25842857 0.00077142863 0.81000006
-0.25625142 0.00076952385 0.80800003
-0.25471237 0.00076952385 0.80800003
-0.25317332 0.00076952385 0.80800003
-0.25101143 0.00076761912 0.80600005
-0.24947619 0.00076761912 0.80600005
-0.24794096 0.00076761912 0.80600005
-0.24640572 0.00076761912 0.80600005
-0.24487048 0.00076761912 0.80600005
-0.24333525 0.00076761912 0.80600005
-0.2412 0.00076571427 0.80400002
-0.23966858 0.00076571427 0.80400002
-0.23813714 0.00076571427 0.80400002
-0.23601715 0.00076380954 0.80200005
-0.23448955 0.00076380954 0.80200005
-0.23296192 0.00076380954 0.80200005
-0.2314343 0.00076380954 0.80200005
-0.22990668 0.00076380954 0.80200005
-0.22837907 0.00076380954 0.80200005
-0.22685143 0.00076380954 0.80200005
-0.22532381 0.00076380954 0.80200005
-0.22379619 0.00076380954 0.80200005
-0.22226858 0.00076380954 0.80200005
-0.22074096 0.00076380954 0.80200005
-0.21976 0.00076571427 0.80400002
-0.21877144 0.00076761912 0.80600005
-0.21777524 0.00076952385 0.80800003
-0.21677144 0.00077142863 0.81000006
-0.21576001 0.00077333336 0.81200004
-0.21474095 0.00077523809 0.81400001
-0.2134524 0.00077619054 0.81500006
-0.21242002 0.00077809527 0.81700003
-0.21086381 0.00077809527 0.81700003
-0.21084477 0.00078380952 0.82300001
-0.20927714 0.00078380952 0.82300001
-0.20871904 0.00078761904 0.82700002
-0.20764476 0.00078952388 0.82900006
-0.20606573 0.00078952388 0.82900006
-0.20498 0.00079142861 0.83100003
-0.20388667 0.0007933334 0.83300006
-0.20278572 0.00079523813 0.83500004
-0.20167714 0.00079714286 0.83700001
-0.20056096 0.00079904764 0.83900005
-0.19991145 0.00080285716 0.84300005
-0.1987762 0.00080476195 0.84500003
-0.19716667 0.00080476195 0.84500003
-0.19625144 0.00080761907 0.84800005
-0.19601335 0.00081333338 0.85400003
-0.19484192 0.00081523816 0.85600007
-0.19366287 0.00081714289 0.85800004
-0.1924762 0.00081904762 0.86000001
-0.19128191 0.00082095241 0.86200005
-0.19030002 0.00082380959 0.86500007
-0.18908858 0.00082571432 0.86700004
-0.18786952 0.00082761905 0.86900002
-0.18664286 0.00082952384 0.87100005
-0.18540858 0.00083142857 0.87300003
-0.18416668 0.00083333335 0.87500006
-0.18354288 0.00083809526 0.88000005
-0.18228 0.00083999999 0.88200003
-0.18100953 0.00084190484 0.88400006
-0.18034001 0.00084666669 0.88900006
-0.17864667 0.00084666669 0.88900006
-0.17735143 0.00084857148 0.89100003
-0.17624572 0.0008514286 0.89400005
-0.17493334 0.00085333333 0.89600003
-0.17361334 0.00085523812 0.89800006
-0.17247714 0.00085809524 0.90100002
-0.17114 0.00086000003 0.90300006
-0.17035811 0.00086476194 0.90800005
-0.16900001 0.00086666667 0.91000003
-0.16818571 0.00087142858 0.91500002
-0.16644286 0.00087142858 0.91500002
-0.1647 0.00087142858 0.91500002
-0.16331333 0.00087333337 0.91700006
-0.16209523 0.00087619049 0.92000002
-0.16069144 0.00087809528 0.92200005
-0.15979715 0.00088285719 0.92700005
-0.15854287 0.00088571431 0.93000007
-0.15710858 0.0008876191 0.93200004
-0.15616667 0.00089238095 0.93700004
-0.1548762 0.00089523813 0.94000006
-0.15341143 0.00089714286 0.94200003
-0.15258285 0.00090285722 0.94800007
-0.15109524 0.00090476195 0.95000005
-0.14928573 0.00090476195 0.95000005
-0.14825238 0.00090952386 0.95500004
-0.14689334 0.00091238099 0.95800006
-0.14552286 0.00091523811 0.96100003
-0.14399144 0.0009171429 0.96300006
-0.1426 0.00092000002 0.96600002
-0.14163429 0.00092571432 0.97200006
-0.14007048 0.00092761905 0.97400004
-0.13864097 0.00093047624 0.97700006
-0.1372 0.00093333336 0.98000002
-0.13533334 0.00093333336 0.98000002
-0.13387524 0.00093619048 0.98300004
-0.13227144 0.00093809533 0.98500007
-0.13118953 0.00094380957 0.99100006
-0.12969334 0.0009466667 0.99400002
-0.12818572 0.00094952382 0.99700004
-0.12666667 0.00095238094 1
-0.12576 0.00096000003 1.008
-0.12420858 0.00096285716 1.011
-0.12264571 0.00096571434 1.0140001
-0.12071429 0.00096571434 1.0140001
-0.11913429 0.00096857152 1.0170001
-0.11719715 0.00096857152 1.0170001
-0.11594 0.00097428571 1.023
-0.11432571 0.00097714283 1.026
-0.11280953 0.00098095241 1.0300001
-0.11117047 0.00098380947 1.033
-0.30298573 0.0023857143 0.83500004
-0.30139527 0.0023857143 0.83500004
-0.29908669 0.00238 0.83300006
-0.29750001 0.00238 0.83300006
-0.29591334 0.00238 0.83300006
-0.29362002 0.0023742858 0.83100003
-0.2913343 0.0023685717 0.82900006
-0.28835717 0.002357143 0.82500005
-0.28609049 0.0023514286 0.82300001
-0.28452286 0.0023514286 0.82300001
-0.28226763 0.0023457143 0.82100004
-0.28070381 0.0023457143 0.82100004
-0.27914003 0.0023457143 0.82100004
-0.27690002 0.0023400001 0.81900007
-0.27534002 0.0023400001 0.81900007
-0.27311143 0.002334286 0.81700003
-0.2708905 0.0023285716 0.81500006
-0.2693381 0.0023285716 0.81500006
-0.26778573 0.0023285716 0.81500006
-0.26590666 0.0023257141 0.81400001
-0.2643562 0.0023257141 0.81400001
-0.26216 0.00232 0.81200004
-0.25997147 0.0023142861 0.81000006
-0.25779051 0.0023085715 0.80800003
-0.25625142 0.0023085715 0.80800003
-0.25471237 0.0023085715 0.80800003
-0.25317332 0.0023085715 0.80800003
-0.25101143 0.0023028573 0.80600005
-0.24947619 0.0023028573 0.80600005
-0.24794096 0.0023028573 0.80600005
-0.24640572 0.0023028573 0.80600005
-0.24487048 0.0023028573 0.80600005
-0.24273144 0.002297143 0.80400002
-0.2412 0.002297143 0.80400002
-0.23966858 0.002297143 0.80400002
-0.23754478 0.0022914286 0.80200005
-0.23601715 0.0022914286 0.80200005
-0.23448955 0.0022914286 0.80200005
-0.23296192 0.0022914286 0.80200005
-0.2314343 0.0022914286 0.80200005
-0.22990668 0.0022914286 0.80200005
-0.22837907 0.0022914286 0.80200005
-0.22685143 0.0022914286 0.80200005
-0.22532381 0.0022914286 0.80200005
-0.22379619 0.0022914286 0.80200005
-0.22226858 0.0022914286 0.80200005
-0.22074096 0.0022914286 0.80200005
-0.22030668 0.0023028573 0.80600005
-0.21931429 0.0023085715 0.80800003
-0.21777524 0.0023085715 0.80800003
-0.21677144 0.0023142861 0.81000006
-0.21576001 0.00232 0.81200004
-0.21421334 0.00232 0.81200004
-0.21319048 0.0023257141 0.81400001
-0.21190001 0.0023285716 0.81500006
-0.21086381 0.002334286 0.81700003
-0.21084477 0.0023514286 0.82300001
-0.20978571 0.002357143 0.82500005
-0.20871904 0.0023628571 0.82700002
-0.20764476 0.0023685717 0.82900006
-0.20656286 0.0023742858 0.83100003
-0.20547333 0.00238 0.83300006
-0.20388667 0.00238 0.83300006
-0.20278572 0.0023857143 0.83500004
-0.20167714 0.0023914287 0.83700001
-0.20056096 0.002397143 0.83900005
-0.19943716 0.0024028572 0.84100002
-0.19830573 0.0024085718 0.84300005
-0.19716667 0.0024142857 0.84500003
-0.19671428 0.0024285717 0.85000002
-0.19601335 0.00244 0.85400003
-0.19484192 0.0024457145 0.85600007
-0.19321144 0.0024457145 0.85600007
-0.19202857 0.0024514287 0.85800004
-0.19128191 0.0024628574 0.86200005
-0.18964 0.0024628574 0.86200005
-0.1886524 0.0024714288 0.86500007
-0.18786952 0.0024828573 0.86900002
-0.18707143 0.0024942856 0.87300003
-0.18540858 0.0024942856 0.87300003
-0.18416668 0.0025000002 0.87500006
-0.18354288 0.0025142857 0.88000005
-0.18228 0.0025200001 0.88200003
-0.18100953 0.0025257145 0.88400006
-0.18034001 0.0025400002 0.88900006
-0.17864667 0.0025400002 0.88900006
-0.17735143 0.0025457144 0.89100003
-0.17624572 0.0025542858 0.89400005
-0.17493334 0.0025600002 0.89600003
-0.17361334 0.0025657145 0.89800006
-0.17247714 0.0025742857 0.90100002
-0.17114 0.0025800001 0.90300006
-0.17035811 0.0025942859 0.90800005
-0.16900001 0.0026 0.91000003
-0.16818571 0.0026142858 0.91500002
-0.16644286 0.0026142858 0.91500002
-0.16506 0.0026200002 0.91700006
-0.16331333 0.0026200002 0.91700006
-0.16209523 0.0026285714 0.92000002
-0.16069144 0.0026342859 0.92200005
-0.15979715 0.0026485715 0.92700005
-0.15854287 0.0026571429 0.93000007
-0.15761429 0.0026714287 0.93500006
-0.15616667 0.0026771429 0.93700004
-0.1548762 0.0026857145 0.94000006
-0.15341143 0.0026914286 0.94200003
-0.15258285 0.0027085717 0.94800007
-0.15109524 0.0027142859 0.95000005
-0.14975715 0.0027228573 0.95300007
-0.1487181 0.0027371428 0.95800006
-0.14689334 0.0027371428 0.95800006
-0.14552286 0.0027457143 0.96100003
-0.14399144 0.0027514286 0.96300006
-0.1426 0.0027600001 0.96600002
-0.14163429 0.0027771429 0.97200006
-0.14007048 0.0027828573 0.97400004
-0.13864097 0.0027914287 0.97700006
-0.1372 0.0028000001 0.98000002
-0.13574763 0.0028085716 0.98300004
-0.13414763 0.0028142859 0.98500007
-0.13227144 0.0028142859 0.98500007
-0.13118953 0.0028314285 0.99100006
-0.12969334 0.00284 0.99400002
-0.12818572 0.0028485716 0.99700004
-0.12704667 0.0028657143 1.003
-0.12576 0.00288 1.008
-0.12420858 0.0028885715 1.011
-0.12264571 0.0028971431 1.0140001
-0.12071429 0.0028971431 1.0140001
-0.11913429 0.0029057143 1.0170001
-0.11754287 0.002914286 1.0200001
-0.11594 0.0029228572 1.023
-0.11432571 0.0029314286 1.026
-0.11280953 0.0029428573 1.0300001
-0.11117047 0.0029514285 1.033
-0.30298573 0.0039761905 0.83500004
-0.30139527 0.0039761905 0.83500004
-0.29908669 0.0039666672 0.83300006
-0.29750001 0.0039666672 0.83300006
-0.29591334 0.0039666672 0.83300006
-0.29362002 0.0039571431 0.83100003
-0.2913343 0.0039476193 0.82900006
-0.28835717 0.0039285715 0.82500005
-0.28609049 0.0039190478 0.82300001
-0.28452286 0.0039190478 0.82300001
-0.28226763 0.0039095236 0.82100004
-0.28070381 0.0039095236 0.82100004
-0.27914003 0.0039095236 0.82100004
-0.27690002 0.0039000001 0.81900007
-0.27534002 0.0039000001 0.81900007
-0.27311143 0.0038904762 0.81700003
-0.2708905 0.0038809527 0.81500006
-0.2693381 0.0038809527 0.81500006
-0.26778573 0.0038809527 0.81500006
-0.26590666 0.0038761906 0.81400001
-0.2643562 0.0038761906 0.81400001
-0.26216 0.0038666669 0.81200004
-0.25997147 0.003857143 0.81000006
-0.25779051 0.0038476191 0.80800003
-0.25625142 0.0038476191 0.80800003
-0.25471237 0.0038476191 0.80800003
-0.25254667 0.0038380953 0.80600005
-0.25101143 0.0038380953 0.80600005
-0.24947619 0.0038380953 0.80600005
-0.24794096 0.0038380953 0.80600005
-0.24640572 0.0038380953 0.80600005
-0.24426287 0.0038285714 0.80400002
-0.24273144 0.0038285714 0.80400002
-0.2412 0.0038285714 0.80400002
-0.23966858 0.0038285714 0.80400002
-0.23754478 0.0038190477 0.80200005
-0.23601715 0.0038190477 0.80200005
-0.23448955 0.0038190477 0.80200005
-0.23296192 0.0038190477 0.80200005
-0.23201142 0.0038285714 0.80400002
-0.22990668 0.0038190477 0.80200005
-0.22837907 0.0038190477 0.80200005
-0.22685143 0.0038190477 0.80200005
-0.22532381 0.0038190477 0.80200005
-0.22379619 0.0038190477 0.80200005
-0.22226858 0.0038190477 0.80200005
-0.22074096 0.0038190477 0.80200005
-0.22030668 0.0038380953 0.80600005
-0.21931429 0.0038476191 0.80800003
-0.21777524 0.0038476191 0.80800003
-0.21677144 0.003857143 0.81000006
-0.21576001 0.0038666669 0.81200004
-0.21474095 0.0038761906 0.81400001
-0.2134524 0.0038809527 0.81500006
-0.21242002 0.0038904762 0.81700003
-0.21138002 0.0039000001 0.81900007
-0.21084477 0.0039190478 0.82300001
-0.20978571 0.0039285715 0.82500005
-0.20922382 0.0039476193 0.82900006
-0.20764476 0.0039476193 0.82900006
-0.20656286 0.0039571431 0.83100003
-0.20547333 0.0039666672 0.83300006
-0.20388667 0.0039666672 0.83300006
-0.20278572 0.0039761905 0.83500004
-0.20167714 0.0039857142 0.83700001
-0.20056096 0.0039952383 0.83900005
-0.19991145 0.0040142857 0.84300005
-0.1987762 0.0040238099 0.84500003
-0.19786668 0.0040380955 0.84800005
-0.19671428 0.0040476192 0.85000002
-0.19601335 0.0040666666 0.85400003
-0.19484192 0.0040761908 0.85600007
-0.19321144 0.0040761908 0.85600007
-0.19202857 0.004085714 0.85800004
-0.1908381 0.0040952382 0.86000001
-0.18964 0.0041047623 0.86200005
-0.1886524 0.0041190479 0.86500007
-0.18786952 0.0041380953 0.86900002
-0.18707143 0.0041571432 0.87300003
-0.18540858 0.0041571432 0.87300003
-0.18416668 0.0041666669 0.87500006
-0.18354288 0.0041904761 0.88000005
-0.18228 0.0042000003 0.88200003
-0.1806 0.0042000003 0.88200003
-0.17993428 0.0042238096 0.88700002
-0.17864667 0.0042333333 0.88900006
-0.17735143 0.004242857 0.89100003
-0.17624572 0.004257143 0.89400005
-0.17493334 0.0042666667 0.89600003
-0.17361334 0.0042761909 0.89800006
-0.17247714 0.0042904764 0.90100002
-0.17114 0.0043000001 0.90300006
-0.17035811 0.0043238099 0.90800005
-0.16900001 0.0043333336 0.91000003
-0.16818571 0.0043571433 0.91500002
-0.16644286 0.0043571433 0.91500002
-0.16506 0.0043666665 0.91700006
-0.16331333 0.0043666665 0.91700006
-0.16209523 0.0043809521 0.92000002
-0.16069144 0.0043904763 0.92200005
-0.15979715 0.004414286 0.92700005
-0.15854287 0.004428572 0.93000007
-0.15761429 0.0044523813 0.93500006
-0.15666668 0.0044761905 0.94000006
-0.15520571 0.0044857142 0.94200003
-0.15390001 0.0045000003 0.94500005
-0.15258285 0.0045142858 0.94800007
-0.15109524 0.0045238095 0.95000005
-0.14975715 0.0045380956 0.95300007
-0.1487181 0.0045619053 0.95800006
-0.14735334 0.0045761908 0.96100003
-0.14552286 0.0045761908 0.96100003
-0.14399144 0.0045857145 0.96300006
-0.1426 0.0046000001 0.96600002
-0.14163429 0.0046285717 0.97200006
-0.14007048 0.0046380954 0.97400004
-0.13864097 0.0046523809 0.97700006
-0.1372 0.0046666665 0.98000002
-0.13574763 0.0046809525 0.98300004
-0.13414763 0.0046904762 0.98500007
-0.13227144 0.0046904762 0.98500007
-0.13118953 0.0047190478 0.99100006
-0.12969334 0.0047333334 0.99400002
-0.12857142 0.0047619045 1
-0.12704667 0.004776191 1.003
-0.12576 0.0047999998 1.008
-0.12420858 0.0048142858 1.011
-0.12264571 0.0048285713 1.0140001
-0.12071429 0.0048285713 1.0140001
-0.11913429 0.0048428574 1.0170001
-0.11754287 0.0048571434 1.0200001
-0.11594 0.0048714285 1.023
-0.11432571 0.0048857145 1.026
-0.11280953 0.0049047624 1.0300001
-0.11117047 0.0049190475 1.033
-0.30298573 0.0055666668 0.83500004
-0.30067337 0.0055533336 0.83300006
-0.29908669 0.0055533336 0.83300006
-0.29750001 0.0055533336 0.83300006
-0.29591334 0.0055533336 0.83300006
-0.29362002 0.0055400003 0.83100003
-0.2913343 0.005526667 0.82900006
-0.28835717 0.0055000004 0.82500005
-0.28609049 0.0054866667 0.82300001
-0.28452286 0.0054866667 0.82300001
-0.28226763 0.0054733334 0.82100004
-0.28070381 0.0054733334 0.82100004
-0.27914003 0.0054733334 0.82100004
-0.27690002 0.0054600001 0.81900007
-0.27534002 0.0054600001 0.81900007
-0.27311143 0.0054466669 0.81700003
-0.2708905 0.0054333336 0.81500006
-0.2693381 0.0054333336 0.81500006
-0.26778573 0.0054333336 0.81500006
-0.26590666 0.0054266667 0.81400001
-0.2643562 0.0054266667 0.81400001
-0.26216 0.0054133334 0.81200004
-0.25997147 0.0054000006 0.81000006
-0.25779051 0.0053866669 0.80800003
-0.25625142 0.0053866669 0.80800003
-0.25471237 0.0053866669 0.80800003
-0.25317332 0.0053866669 0.80800003
-0.25101143 0.0053733336 0.80600005
-0.24947619 0.0053733336 0.80600005
-0.24794096 0.0053733336 0.80600005
-0.24640572 0.0053733336 0.80600005
-0.24426287 0.0053600003 0.80400002
-0.24273144 0.0053600003 0.80400002
-0.2412 0.0053600003 0.80400002
-0.23966858 0.0053600003 0.80400002
-0.23813714 0.0053600003 0.80400002
-0.23601715 0.005346667 0.80200005
-0.23448955 0.005346667 0.80200005
-0.23296192 0.005346667 0.80200005
-0.23201142 0.0053600003 0.80400002
-0.22990668 0.005346667 0.80200005
-0.22837907 0.005346667 0.80200005
-0.22685143 0.005346667 0.80200005
-0.22532381 0.005346667 0.80200005
-0.22379619 0.005346667 0.80200005
-0.22226858 0.005346667 0.80200005
-0.22074096 0.005346667 0.80200005
-0.22030668 0.0053733336 0.80600005
-0.21931429 0.0053866669 0.80800003
-0.21777524 0.0053866669 0.80800003
-0.21623619 0.0053866669 0.80800003
-0.21522859 0.0054000006 0.81000006
-0.21474095 0.0054266667 0.81400001
-0.2134524 0.0054333336 0.81500006
-0.21242002 0.0054466669 0.81700003
-0.2118962 0.0054733334 0.82100004
-0.21084477 0.0054866667 0.82300001
-0.20978571 0.0055000004 0.82500005
-0.20922382 0.005526667 0.82900006
-0.20764476 0.005526667 0.82900006
-0.20656286 0.0055400003 0.83100003
-0.20498 0.0055400003 0.83100003
-0.20388667 0.0055533336 0.83300006
-0.20278572 0.0055666668 0.83500004
-0.20167714 0.0055800001 0.83700001
-0.20056096 0.0055933334 0.83900005
-0.19943716 0.0056066667 0.84100002
-0.1987762 0.0056333332 0.84500003
-0.19786668 0.0056533334 0.84800005
-0.19671428 0.0056666667 0.85000002
-0.19601335 0.0056933332 0.85400003
-0.19484192 0.005706667 0.85600007
-0.19321144 0.005706667 0.85600007
-0.19202857 0.0057200002 0.85800004
-0.1908381 0.0057333331 0.86000001
-0.18964 0.0057466668 0.86200005
-0.1886524 0.005766667 0.86500007
-0.18786952 0.0057933335 0.86900002
-0.18664286 0.0058066668 0.87100005
-0.18583335 0.0058333338 0.87500006
-0.18416668 0.0058333338 0.87500006
-0.18354288 0.0058666668 0.88000005
-0.18228 0.0058800001 0.88200003
-0.1806 0.0058800001 0.88200003
-0.17932571 0.0058933338 0.88400006
-0.17864667 0.0059266672 0.88900006
-0.17695335 0.0059266672 0.88900006
-0.17565429 0.0059400005 0.89100003
-0.17493334 0.0059733335 0.89600003
-0.17361334 0.0059866668 0.89800006
-0.17286 0.0060200007 0.90300006
-0.17151904 0.0060333335 0.90500003
-0.17035811 0.0060533336 0.90800005
-0.16900001 0.0060666669 0.91000003
-0.16781811 0.0060866671 0.91300005
-0.16644286 0.0061000003 0.91500002
-0.16506 0.0061133341 0.91700006
-0.16384763 0.0061333333 0.92000002
-0.16209523 0.0061333333 0.92000002
-0.16069144 0.0061466671 0.92200005
-0.15979715 0.00618 0.92700005
-0.15854287 0.0062000002 0.93000007
-0.15761429 0.0062333336 0.93500006
-0.15666668 0.006266667 0.94000006
-0.15520571 0.0062800003 0.94200003
-0.15390001 0.0063 0.94500005
-0.15258285 0.0063200006 0.94800007
-0.15109524 0.0063333339 0.95000005
-0.14975715 0.0063533336 0.95300007
-0.14825238 0.0063666669 0.95500004
-0.14689334 0.006386667 0.95800006
-0.14552286 0.0064066667 0.96100003
-0.14399144 0.00642 0.96300006
-0.1426 0.0064400001 0.96600002
-0.14163429 0.0064800004 0.97200006
-0.14007048 0.0064933337 0.97400004
-0.13864097 0.0065133334 0.97700006
-0.1372 0.0065333336 0.98000002
-0.13574763 0.0065533337 0.98300004
-0.13414763 0.006566667 0.98500007
-0.13227144 0.006566667 0.98500007
-0.13118953 0.0066066668 0.99100006
-0.12969334 0.006626667 0.99400002
-0.12857142 0.0066666668 1
-0.12704667 0.0066866665 1.003
-0.12576 0.0067199999 1.008
-0.12420858 0.0067400001 1.011
-0.12264571 0.0067600003 1.0140001
-0.12071429 0.0067600003 1.0140001
-0.11913429 0.0067800004 1.0170001
-0.11754287 0.0068000006 1.0200001
-0.11594 0.0068200002 1.023
-0.11432571 0.0068399999 1.026
-0.11237143 0.0068399999 1.026
-0.11084762 0.006866667 1.0300001
-0.10888572 0.006866667 1.0300001
-0.10692382 0.006866667 1.0300001
-0.30298573 0.0071571432 0.83500004
-0.30139527 0.0071571432 0.83500004
-0.29980478 0.0071571432 0.83500004
-0.29821429 0.0071571432 0.83500004
-0.29591334 0.0071400008 0.83300006
-0.29362002 0.007122857 0.83100003
-0.2913343 0.0071057146 0.82900006
-0.28835717 0.0070714285 0.82500005
-0.28609049 0.0070542856 0.82300001
-0.28383145 0.0070371432 0.82100004
-0.28226763 0.0070371432 0.82100004
-0.28070381 0.0070371432 0.82100004
-0.27914003 0.0070371432 0.82100004
-0.27690002 0.0070200008 0.81900007
-0.27534002 0.0070200008 0.81900007
-0.27311143 0.007002857 0.81700003
-0.2708905 0.0069857147 0.81500006
-0.2693381 0.0069857147 0.81500006
-0.26778573 0.0069857147 0.81500006
-0.26590666 0.0069771428 0.81400001
-0.2643562 0.0069771428 0.81400001
-0.26216 0.0069600004 0.81200004
-0.25997147 0.0069428575 0.81000006
-0.25779051 0.0069257147 0.80800003
-0.25688571 0.0069428575 0.81000006
-0.25471237 0.0069257147 0.80800003
-0.25317332 0.0069257147 0.80800003
-0.25101143 0.0069085718 0.80600005
-0.24947619 0.0069085718 0.80600005
-0.24794096 0.0069085718 0.80600005
-0.24640572 0.0069085718 0.80600005
-0.24487048 0.0069085718 0.80600005
-0.24333525 0.0069085718 0.80600005
-0.2412 0.0068914285 0.80400002
-0.23966858 0.0068914285 0.80400002
-0.23813714 0.0068914285 0.80400002
-0.23660572 0.0068914285 0.80400002
-0.23448955 0.0068742861 0.80200005
-0.23296192 0.0068742861 0.80200005
-0.23201142 0.0068914285 0.80400002
-0.22990668 0.0068742861 0.80200005
-0.22837907 0.0068742861 0.80200005
-0.22685143 0.0068742861 0.80200005
-0.22532381 0.0068742861 0.80200005
-0.22379619 0.0068742861 0.80200005
-0.22226858 0.0068742861 0.80200005
-0.22074096 0.0068742861 0.80200005
-0.21976 0.0068914285 0.80400002
-0.21877144 0.0069085718 0.80600005
-0.21723621 0.0069085718 0.80600005
-0.21623619 0.0069257147 0.80800003
-0.21522859 0.0069428575 0.81000006
-0.21474095 0.0069771428 0.81400001
-0.2134524 0.0069857147 0.81500006
-0.21294002 0.0070200008 0.81900007
-0.2118962 0.0070371432 0.82100004
-0.21084477 0.0070542856 0.82300001
-0.20927714 0.0070542856 0.82300001
-0.20922382 0.0071057146 0.82900006
-0.20764476 0.0071057146 0.82900006
-0.20656286 0.007122857 0.83100003
-0.20547333 0.0071400008 0.83300006
-0.20388667 0.0071400008 0.83300006
-0.20278572 0.0071571432 0.83500004
-0.20167714 0.0071742856 0.83700001
-0.20056096 0.0071914289 0.83900005
-0.19943716 0.0072085718 0.84100002
-0.1987762 0.0072428575 0.84500003
-0.19786668 0.0072685718 0.84800005
-0.19671428 0.0072857141 0.85000002
