# .PCD v0.7 - Point Cloud Data file format
VERSION 0.7
FIELDS x y z
SIZE 4 4 4
TYPE F F F
COUNT 1 1 1
WIDTH 1363
HEIGHT 1
VIEWPOINT 0 0 0 1 0 0 0
POINTS 1363
DATA ascii
0.040128574 -0.0022714285 0.79500002
0.041538097 -0.0022657143 0.79300004
0.042940002 -0.0022600002 0.79100001
0.044446666 -0.0022600002 0.79100001
0.045953333 -0.0022600002 0.79100001
0.047340002 -0.0022542858 0.78900003
0.048780952 -0.0022514286 0.78800005
0.050281905 -0.0022514286 0.78800005
0.051651429 -0.0022457142 0.78600001
0.053148571 -0.0022457142 0.78600001
0.054645717 -0.0022457142 0.78600001
0.056000002 -0.0022400003 0.78400004
0.057493336 -0.0022400003 0.78400004
0.058836192 -0.0022342859 0.78200006
0.060325719 -0.0022342859 0.78200006
0.061657146 -0.0022285716 0.78000003
0.063061908 -0.0022257145 0.77900004
0.064545713 -0.0022257145 0.77900004
0.066029526 -0.0022257145 0.77900004
0.067513339 -0.0022257145 0.77900004
0.068997145 -0.0022257145 0.77900004
0.070480958 -0.0022257145 0.77900004
0.071964763 -0.0022257145 0.77900004
0.073448576 -0.0022257145 0.77900004
0.074932382 -0.0022257145 0.77900004
0.076219998 -0.0022200001 0.77700001
0.077699997 -0.0022200001 0.77700001
0.079180002 -0.0022200001 0.77700001
0.08066 -0.0022200001 0.77700001
0.081928574 -0.0022142858 0.77500004
0.083404765 -0.0022142858 0.77500004
0.084880956 -0.0022142858 0.77500004
0.086357147 -0.0022142858 0.77500004
0.088059999 -0.0022200001 0.77700001
0.089539997 -0.0022200001 0.77700001
0.091254294 -0.0022257145 0.77900004
0.092857152 -0.0022285716 0.78000003
0.094584771 -0.0022342859 0.78200006
0.096565716 -0.0022457142 0.78600001
0.098312385 -0.0022514286 0.78800005
0.099940002 -0.0022542858 0.78900003
0.1017 -0.0022600002 0.79100001
0.10372857 -0.0022714285 0.79500002
0.10590477 -0.0022857143 0.80000001
0.10796572 -0.002297143 0.80400002
0.11004191 -0.0023085715 0.80800003
0.11185715 -0.0023142861 0.81000006
0.11410001 -0.0023285716 0.81500006
0.11622001 -0.0023400001 0.81900007
0.11835524 -0.0023514286 0.82300001
0.12021429 -0.002357143 0.82500005
0.12208095 -0.0023628571 0.82700002
0.12395525 -0.0023685717 0.82900006
0.12583713 -0.0023742858 0.83100003
0.12772667 -0.00238 0.83300006
0.12993428 -0.0023914287 0.83700001
0.13184287 -0.002397143 0.83900005
0.13407715 -0.0024085718 0.84300005
0.13680953 -0.0024285717 0.85000002
0.13908 -0.00244 0.85400003
0.14136572 -0.0024514287 0.85800004
0.14333333 -0.0024571428 0.86000001
0.14530857 -0.0024628574 0.86200005
0.14746191 -0.0024714288 0.86500007
0.14910954 -0.0024714288 0.86500007
0.15145428 -0.0024828573 0.86900002
0.15346192 -0.0024885715 0.87100005
0.15636761 -0.0025085714 0.87800002
0.15876 -0.0025200001 0.88200003
0.16134953 -0.0025342857 0.88700002
0.16340667 -0.0025400002 0.88900006
0.16602859 -0.0025542858 0.89400005
0.1684819 -0.0025657145 0.89800006
0.17114 -0.0025800001 0.90300006
0.17324285 -0.0025857145 0.90500003
0.17496668 -0.0025857145 0.90500003
0.17766666 -0.0026 0.91000003
0.18038571 -0.0026142858 0.91500002
0.18252668 -0.0026200002 0.91700006
0.18588097 -0.0026428571 0.92500007
0.18804857 -0.0026485715 0.92700005
0.19042858 -0.0026571429 0.93000007
0.19261333 -0.0026628571 0.93200004
0.19605716 -0.0026857145 0.94000006
0.19890001 -0.0027000001 0.94500005
0.20133716 -0.0027085717 0.94800007
0.20357144 -0.0027142859 0.95000005
0.20646191 -0.0027285716 0.95500004
0.20893526 -0.0027371428 0.95800006
0.21076001 -0.0027371428 0.95800006
0.21325049 -0.0027457143 0.96100003
0.21687144 -0.0027685715 0.96900004
0.22052287 -0.0027914287 0.97700006
0.22306667 -0.0028000001 0.98000002
0.22562192 -0.0028085716 0.98300004
0.22795714 -0.0028142859 0.98500007
0.23053335 -0.0028228574 0.98800004
0.011700001 -0.00078000006 0.81900007
0.01322762 -0.00077809527 0.81700003
0.01474762 -0.00077619054 0.81500006
0.016300002 -0.00077619054 0.81500006
0.017852381 -0.00077619054 0.81500006
0.019380953 -0.00077523809 0.81400001
0.020880001 -0.00077333336 0.81200004
0.02237143 -0.00077142863 0.81000006
0.023855237 -0.00076952385 0.80800003
0.02533143 -0.00076761912 0.80600005
0.026733335 -0.00076380954 0.80200005
0.028260954 -0.00076380954 0.80200005
0.029714286 -0.00076190475 0.80000001
0.031160003 -0.00076000002 0.79800004
0.032680001 -0.00076000002 0.79800004
0.034199998 -0.00076000002 0.79800004
0.035675243 -0.00075904763 0.79700005
0.037100002 -0.00075714284 0.79500002
0.038614288 -0.00075714284 0.79500002
0.040128574 -0.00075714284 0.79500002
0.041538097 -0.00075523811 0.79300004
0.042940002 -0.00075333333 0.79100001
0.044446666 -0.00075333333 0.79100001
0.045837145 -0.0007514286 0.78900003
0.047340002 -0.0007514286 0.78900003
0.048780952 -0.0007504762 0.78800005
0.050281905 -0.0007504762 0.78800005
0.051651429 -0.00074857142 0.78600001
0.053148571 -0.00074857142 0.78600001
0.054645717 -0.00074857142 0.78600001
0.056000002 -0.00074666669 0.78400004
0.057493336 -0.00074666669 0.78400004
0.058836192 -0.00074476196 0.78200006
0.060171433 -0.00074285717 0.78000003
0.061657146 -0.00074285717 0.78000003
0.063061908 -0.00074190478 0.77900004
0.064545713 -0.00074190478 0.77900004
0.066029526 -0.00074190478 0.77900004
0.067513339 -0.00074190478 0.77900004
0.068997145 -0.00074190478 0.77900004
0.070480958 -0.00074190478 0.77900004
0.071964763 -0.00074190478 0.77900004
0.073448576 -0.00074190478 0.77900004
0.074932382 -0.00074190478 0.77900004
0.076219998 -0.00073999999 0.77700001
0.077699997 -0.00073999999 0.77700001
0.079180002 -0.00073999999 0.77700001
0.08066 -0.00073999999 0.77700001
0.081928574 -0.00073809526 0.77500004
0.083404765 -0.00073809526 0.77500004
0.084880956 -0.00073809526 0.77500004
0.086357147 -0.00073809526 0.77500004
0.088059999 -0.00073999999 0.77700001
0.089539997 -0.00073999999 0.77700001
0.091254294 -0.00074190478 0.77900004
0.092857152 -0.00074285717 0.78000003
0.094584771 -0.00074476196 0.78200006
0.096320003 -0.00074666669 0.78400004
0.098062858 -0.00074857142 0.78600001
0.099940002 -0.0007514286 0.78900003
0.1017 -0.00075333333 0.79100001
0.10372857 -0.00075714284 0.79500002
0.10564 -0.00076000002 0.79800004
0.10796572 -0.00076571427 0.80400002
0.11004191 -0.00076952385 0.80800003
0.11213334 -0.00077333336 0.81200004
0.11410001 -0.00077619054 0.81500006
0.11622001 -0.00078000006 0.81900007
0.11835524 -0.00078380952 0.82300001
0.12021429 -0.00078571431 0.82500005
0.12208095 -0.00078761904 0.82700002
0.12395525 -0.00078952388 0.82900006
0.12583713 -0.00079142861 0.83100003
0.12772667 -0.0007933334 0.83300006
0.12962382 -0.00079523813 0.83500004
0.13184287 -0.00079904764 0.83900005
0.13375905 -0.00080095237 0.84100002
0.13648763 -0.00080761907 0.84800005
0.13875429 -0.00081142865 0.85200006
0.1410362 -0.00081523816 0.85600007
0.14300001 -0.00081714289 0.85800004
0.14530857 -0.00082095241 0.86200005
0.14746191 -0.00082380959 0.86500007
0.14945428 -0.00082571432 0.86700004
0.15180287 -0.00082952384 0.87100005
0.15381429 -0.00083142857 0.87300003
0.15636761 -0.00083619048 0.87800002
0.15876 -0.00083999999 0.88200003
0.16134953 -0.0008447619 0.88700002
0.16340667 -0.00084666669 0.88900006
0.16602859 -0.0008514286 0.89400005
0.1684819 -0.00085523812 0.89800006
0.17114 -0.00086000003 0.90300006
0.17324285 -0.00086190476 0.90500003
0.17496668 -0.00086190476 0.90500003
0.17766666 -0.00086666667 0.91000003
0.18038571 -0.00087142858 0.91500002
0.18212856 -0.00087142858 0.91500002
0.18588097 -0.00088095246 0.92500007
0.18804857 -0.00088285719 0.92700005
0.19042858 -0.00088571431 0.93000007
0.19323336 -0.00089047622 0.93500006
0.19605716 -0.00089523813 0.94000006
0.19826858 -0.00089714286 0.94200003
0.20133716 -0.00090285722 0.94800007
0.20357144 -0.00090476195 0.95000005
0.20646191 -0.00090952386 0.95500004
0.20893526 -0.00091238099 0.95800006
0.21076001 -0.00091238099 0.95800006
0.21325049 -0.00091523811 0.96100003
0.21687144 -0.00092285714 0.96900004
0.22052287 -0.00093047624 0.97700006
0.22374953 -0.00093619048 0.98300004
0.22608097 -0.00093809533 0.98500007
0.22865143 -0.00094095239 0.98800004
0.23053335 -0.00094095239 0.98800004
0.011671429 0.00077809527 0.81700003
0.01322762 0.00077809527 0.81700003
0.01478381 0.00077809527 0.81700003
0.016300002 0.00077619054 0.81500006
0.017852381 0.00077619054 0.81500006
0.019380953 0.00077523809 0.81400001
0.020880001 0.00077333336 0.81200004
0.02237143 0.00077142863 0.81000006
0.023855237 0.00076952385 0.80800003
0.02533143 0.00076761912 0.80600005
0.026733335 0.00076380954 0.80200005
0.028190477 0.00076190475 0.80000001
0.029714286 0.00076190475 0.80000001
0.031160003 0.00076000002 0.79800004
0.032680001 0.00076000002 0.79800004
0.034199998 0.00076000002 0.79800004
0.035675243 0.00075904763 0.79700005
0.037100002 0.00075714284 0.79500002
0.038614288 0.00075714284 0.79500002
0.040027622 0.00075523811 0.79300004
0.041538097 0.00075523811 0.79300004
0.042940002 0.00075333333 0.79100001
0.044446666 0.00075333333 0.79100001
0.045837145 0.0007514286 0.78900003
0.047340002 0.0007514286 0.78900003
0.048780952 0.0007504762 0.78800005
0.050281905 0.0007504762 0.78800005
0.051651429 0.00074857142 0.78600001
0.053148571 0.00074857142 0.78600001
0.054645717 0.00074857142 0.78600001
0.056000002 0.00074666669 0.78400004
0.057493336 0.00074666669 0.78400004
0.058836192 0.00074476196 0.78200006
0.060171433 0.00074285717 0.78000003
0.061657146 0.00074285717 0.78000003
0.063061908 0.00074190478 0.77900004
0.064545713 0.00074190478 0.77900004
0.066029526 0.00074190478 0.77900004
0.067513339 0.00074190478 0.77900004
0.068997145 0.00074190478 0.77900004
0.070480958 0.00074190478 0.77900004
0.071964763 0.00074190478 0.77900004
0.073448576 0.00074190478 0.77900004
0.074932382 0.00074190478 0.77900004
0.076219998 0.00073999999 0.77700001
0.077699997 0.00073999999 0.77700001
0.079180002 0.00073999999 0.77700001
0.08066 0.00073999999 0.77700001
0.082139999 0.00073999999 0.77700001
0.083620004 0.00073999999 0.77700001
0.084880956 0.00073809526 0.77500004
0.086357147 0.00073809526 0.77500004
0.088059999 0.00073999999 0.77700001
0.089539997 0.00073999999 0.77700001
0.091371432 0.00074285717 0.78000003
0.092857152 0.00074285717 0.78000003
0.094584771 0.00074476196 0.78200006
0.096320003 0.00074666669 0.78400004
0.098062858 0.00074857142 0.78600001
0.099813342 0.0007504762 0.78800005
0.10144287 0.0007514286 0.78900003
0.10398953 0.00075904763 0.79700005
0.10616953 0.00076380954 0.80200005
0.10823429 0.00076761912 0.80600005
0.10976953 0.00076761912 0.80600005
0.11213334 0.00077333336 0.81200004
0.11396001 0.00077523809 0.81400001
0.11565238 0.00077619054 0.81500006
0.11835524 0.00078380952 0.82300001
0.12021429 0.00078571431 0.82500005
0.12208095 0.00078761904 0.82700002
0.12395525 0.00078952388 0.82900006
0.12583713 0.00079142861 0.83100003
0.12772667 0.0007933334 0.83300006
0.12962382 0.00079523813 0.83500004
0.13184287 0.00079904764 0.83900005
0.13407715 0.00080285716 0.84300005
0.13648763 0.00080761907 0.84800005
0.13875429 0.00081142865 0.85200006
0.1410362 0.00081523816 0.85600007
0.14333333 0.00081904762 0.86000001
0.14530857 0.00082095241 0.86200005
0.14746191 0.00082380959 0.86500007
0.14979905 0.00082761905 0.86900002
0.15180287 0.00082952384 0.87100005
0.15381429 0.00083142857 0.87300003
0.15636761 0.00083619048 0.87800002
0.15876 0.00083999999 0.88200003
0.16134953 0.0008447619 0.88700002
0.1637743 0.00084857148 0.89100003
0.16602859 0.0008514286 0.89400005
0.1684819 0.00085523812 0.89800006
0.17076096 0.00085809524 0.90100002
0.17286 0.00086000003 0.90300006
0.17496668 0.00086190476 0.90500003
0.17766666 0.00086666667 0.91000003
0.18038571 0.00087142858 0.91500002
0.18212856 0.00087142858 0.91500002
0.18588097 0.00088095246 0.92500007
0.18804857 0.00088285719 0.92700005
0.19042858 0.00088571431 0.93000007
0.19323336 0.00089047622 0.93500006
0.19605716 0.00089523813 0.94000006
0.19826858 0.00089714286 0.94200003
0.20133716 0.00090285722 0.94800007
0.20357144 0.00090476195 0.95000005
0.20602953 0.00090761908 0.95300007
0.20828095 0.00090952386 0.95500004
0.21076001 0.00091238099 0.95800006
0.21325049 0.00091523811 0.96100003
0.21687144 0.00092285714 0.96900004
0.22052287 0.00093047624 0.97700006
0.22306667 0.00093333336 0.98000002
0.22562192 0.00093619048 0.98300004
0.22795714 0.00093809533 0.98500007
0.23053335 0.00094095239 0.98800004
0.011671429 0.002334286 0.81700003
0.01322762 0.002334286 0.81700003
0.01478381 0.002334286 0.81700003
0.016300002 0.0023285716 0.81500006
0.017852381 0.0023285716 0.81500006
0.019380953 0.0023257141 0.81400001
0.020931428 0.0023257141 0.81400001
0.022426667 0.00232 0.81200004
0.023855237 0.0023085715 0.80800003
0.02533143 0.0023028573 0.80600005
0.026800001 0.002297143 0.80400002
0.028190477 0.0022857143 0.80000001
0.029714286 0.0022857143 0.80000001
0.031160003 0.0022800001 0.79800004
0.032680001 0.0022800001 0.79800004
0.034199998 0.0022800001 0.79800004
0.035675243 0.0022771431 0.79700005
0.037100002 0.0022714285 0.79500002
0.038614288 0.0022714285 0.79500002
0.040027622 0.0022657143 0.79300004
0.041538097 0.0022657143 0.79300004
0.042940002 0.0022600002 0.79100001
0.044446666 0.0022600002 0.79100001
0.045837145 0.0022542858 0.78900003
0.047340002 0.0022542858 0.78900003
0.048780952 0.0022514286 0.78800005
0.050281905 0.0022514286 0.78800005
0.051782858 0.0022514286 0.78800005
0.053148571 0.0022457142 0.78600001
0.054645717 0.0022457142 0.78600001
0.056142855 0.0022457142 0.78600001
0.057493336 0.0022400003 0.78400004
0.058685716 0.0022285716 0.78000003
0.060171433 0.0022285716 0.78000003
0.061578099 0.0022257145 0.77900004
0.063061908 0.0022257145 0.77900004
0.064545713 0.0022257145 0.77900004
0.066029526 0.0022257145 0.77900004
0.067513339 0.0022257145 0.77900004
0.068997145 0.0022257145 0.77900004
0.070480958 0.0022257145 0.77900004
0.071964763 0.0022257145 0.77900004
0.073448576 0.0022257145 0.77900004
0.074932382 0.0022257145 0.77900004
0.076416194 0.0022257145 0.77900004
0.077699997 0.0022200001 0.77700001
0.079180002 0.0022200001 0.77700001
0.08066 0.0022200001 0.77700001
0.082139999 0.0022200001 0.77700001
0.083620004 0.0022200001 0.77700001
0.085100003 0.0022200001 0.77700001
0.086357147 0.0022142858 0.77500004
0.088059999 0.0022200001 0.77700001
0.089539997 0.0022200001 0.77700001
0.091371432 0.0022285716 0.78000003
0.093095243 0.0022342859 0.78200006
0.094826676 0.0022400003 0.78400004
0.096320003 0.0022400003 0.78400004
0.098062858 0.0022457142 0.78600001
0.099813342 0.0022514286 0.78800005
0.10131429 0.0022514286 0.78800005
0.10438095 0.0022857143 0.80000001
0.10616953 0.0022914286 0.80200005
0.10823429 0.0023028573 0.80600005
0.10976953 0.0023028573 0.80600005
0.11213334 0.00232 0.81200004
0.11396001 0.0023257141 0.81400001
0.11565238 0.0023285716 0.81500006
0.11806762 0.0023457143 0.82100004
0.11992285 0.0023514286 0.82300001
0.12208095 0.0023628571 0.82700002
0.12395525 0.0023685717 0.82900006
0.12583713 0.0023742858 0.83100003
0.12772667 0.00238 0.83300006
0.12962382 0.0023857143 0.83500004
0.13184287 0.002397143 0.83900005
0.13407715 0.0024085718 0.84300005
0.13648763 0.0024228573 0.84800005
0.13875429 0.0024342858 0.85200006
0.14136572 0.0024514287 0.85800004
0.14333333 0.0024571428 0.86000001
0.14530857 0.0024628574 0.86200005
0.14746191 0.0024714288 0.86500007
0.14945428 0.002477143 0.86700004
0.15180287 0.0024885715 0.87100005
0.15381429 0.0024942856 0.87300003
0.15636761 0.0025085714 0.87800002
0.15876 0.0025200001 0.88200003
0.16134953 0.0025342857 0.88700002
0.1637743 0.0025457144 0.89100003
0.16602859 0.0025542858 0.89400005
0.16810668 0.0025600002 0.89600003
0.17076096 0.0025742857 0.90100002
0.17286 0.0025800001 0.90300006
0.17458001 0.0025800001 0.90300006
0.17825238 0.0026085714 0.91300005
0.18078001 0.0026200002 0.91700006
0.18252668 0.0026200002 0.91700006
0.18588097 0.0026428571 0.92500007
0.18804857 0.0026485715 0.92700005
0.19042858 0.0026571429 0.93000007
0.19323336 0.0026714287 0.93500006
0.19605716 0.0026857145 0.94000006
0.19890001 0.0027000001 0.94500005
0.20133716 0.0027085717 0.94800007
0.20357144 0.0027142859 0.95000005
0.20602953 0.0027228573 0.95300007
0.20828095 0.0027285716 0.95500004
0.21076001 0.0027371428 0.95800006
0.21325049 0.0027457143 0.96100003
0.21799049 0.0027828573 0.97400004
0.22052287 0.0027914287 0.97700006
0.22306667 0.0028000001 0.98000002
0.22562192 0.0028085716 0.98300004
0.22795714 0.0028142859 0.98500007
0.010140001 0.0039000001 0.81900007
0.011700001 0.0039000001 0.81900007
0.01322762 0.0038904762 0.81700003
0.01478381 0.0038904762 0.81700003
0.016340001 0.0038904762 0.81700003
0.017852381 0.0038809527 0.81500006
0.019380953 0.0038761906 0.81400001
0.020931428 0.0038761906 0.81400001
0.022426667 0.0038666669 0.81200004
0.023855237 0.0038476191 0.80800003
0.025394287 0.0038476191 0.80800003
0.026866667 0.0038380953 0.80600005
0.028260954 0.0038190477 0.80200005
0.029714286 0.0038095238 0.80000001
0.031160003 0.0038000003 0.79800004
0.032680001 0.0038000003 0.79800004
0.034157146 0.0037952382 0.79700005
0.035675243 0.0037952382 0.79700005
0.037100002 0.0037857143 0.79500002
0.038614288 0.0037857143 0.79500002
0.040027622 0.0037761906 0.79300004
0.041538097 0.0037761906 0.79300004
0.042940002 0.0037666666 0.79100001
0.044446666 0.0037666666 0.79100001
0.045837145 0.0037571429 0.78900003
0.047340002 0.0037571429 0.78900003
0.048780952 0.0037523813 0.78800005
0.050281905 0.0037523813 0.78800005
0.051782858 0.0037523813 0.78800005
0.053148571 0.0037428571 0.78600001
0.054645717 0.0037428571 0.78600001
0.056000002 0.0037333334 0.78400004
0.057493336 0.0037333334 0.78400004
0.058836192 0.0037238097 0.78200006
0.060171433 0.0037142858 0.78000003
0.061578099 0.0037095239 0.77900004
0.063061908 0.0037095239 0.77900004
0.064545713 0.0037095239 0.77900004
0.066029526 0.0037095239 0.77900004
0.067513339 0.0037095239 0.77900004
0.068997145 0.0037095239 0.77900004
0.070480958 0.0037095239 0.77900004
0.071964763 0.0037095239 0.77900004
0.073448576 0.0037095239 0.77900004
0.074932382 0.0037095239 0.77900004
0.076219998 0.0037 0.77700001
0.077699997 0.0037 0.77700001
0.079180002 0.0037 0.77700001
0.08066 0.0037 0.77700001
0.081928574 0.0036904763 0.77500004
0.083404765 0.0036904763 0.77500004
0.084880956 0.0036904763 0.77500004
0.086357147 0.0036904763 0.77500004
0.088059999 0.0037 0.77700001
0.089539997 0.0037 0.77700001
0.091605715 0.0037238097 0.78200006
0.093095243 0.0037238097 0.78200006
0.094826676 0.0037333334 0.78400004
0.096565716 0.0037428571 0.78600001
0.098062858 0.0037428571 0.78600001
0.099813342 0.0037523813 0.78800005
0.10131429 0.0037523813 0.78800005
0.10412 0.0038000003 0.79800004
0.10616953 0.0038190477 0.80200005
0.10823429 0.0038380953 0.80600005
0.11004191 0.0038476191 0.80800003
0.11213334 0.0038666669 0.81200004
0.11396001 0.0038761906 0.81400001
0.11565238 0.0038809527 0.81500006
0.11806762 0.0039095236 0.82100004
0.11992285 0.0039190478 0.82300001
0.12208095 0.0039380956 0.82700002
0.12395525 0.0039476193 0.82900006
0.12583713 0.0039571431 0.83100003
0.12772667 0.0039666672 0.83300006
0.12962382 0.0039761905 0.83500004
0.13184287 0.0039952383 0.83900005
0.13439524 0.0040238099 0.84500003
0.13648763 0.0040380955 0.84800005
0.13875429 0.0040571429 0.85200006
0.1410362 0.0040761908 0.85600007
0.14333333 0.0040952382 0.86000001
0.14530857 0.0041047623 0.86200005
0.14746191 0.0041190479 0.86500007
0.14945428 0.0041285716 0.86700004
0.15180287 0.0041476195 0.87100005
0.15381429 0.0041571432 0.87300003
0.15636761 0.0041809524 0.87800002
0.15876 0.0042000003 0.88200003
0.16134953 0.0042238096 0.88700002
0.1637743 0.004242857 0.89100003
0.16602859 0.004257143 0.89400005
0.16810668 0.0042666667 0.89600003
0.17076096 0.0042904764 0.90100002
0.17247714 0.0042904764 0.90100002
0.17458001 0.0043000001 0.90300006
0.17766666 0.0043333336 0.91000003
0.18038571 0.0043571433 0.91500002
0.18252668 0.0043666665 0.91700006
0.1852781 0.0043904763 0.92200005
0.18804857 0.004414286 0.92700005
0.19042858 0.004428572 0.93000007
0.19323336 0.0044523813 0.93500006
0.19605716 0.0044761905 0.94000006
0.19826858 0.0044857142 0.94200003
0.20133716 0.0045142858 0.94800007
0.20357144 0.0045238095 0.95000005
0.20602953 0.0045380956 0.95300007
0.20893526 0.0045619053 0.95800006
0.21142001 0.0045761908 0.96100003
0.21369429 0.0045857145 0.96300006
0.21866192 0.0046523809 0.97700006
0.2212 0.0046666665 0.98000002
0.22306667 0.0046666665 0.98000002
0.22562192 0.0046809525 0.98300004
0.22795714 0.0046904762 0.98500007
0.010140001 0.0054600001 0.81900007
0.011700001 0.0054600001 0.81900007
0.01322762 0.0054466669 0.81700003
0.01478381 0.0054466669 0.81700003
0.016340001 0.0054466669 0.81700003
0.017852381 0.0054333336 0.81500006
0.019380953 0.0054266667 0.81400001
0.020931428 0.0054266667 0.81400001
0.022426667 0.0054133334 0.81200004
0.023855237 0.0053866669 0.80800003
0.02533143 0.0053733336 0.80600005
0.026800001 0.0053600003 0.80400002
0.028260954 0.005346667 0.80200005
0.029714286 0.0053333333 0.80000001
0.031160003 0.0053200005 0.79800004
0.032680001 0.0053200005 0.79800004
0.034199998 0.0053200005 0.79800004
0.035675243 0.0053133336 0.79700005
0.037100002 0.0052999998 0.79500002
0.038614288 0.0052999998 0.79500002
0.040027622 0.0052866666 0.79300004
0.041538097 0.0052866666 0.79300004
0.042940002 0.0052733333 0.79100001
0.044446666 0.0052733333 0.79100001
0.045837145 0.00526 0.78900003
0.047280002 0.0052533336 0.78800005
0.048780952 0.0052533336 0.78800005
0.050281905 0.0052533336 0.78800005
0.051782858 0.0052533336 0.78800005
0.053148571 0.0052399999 0.78600001
0.054645717 0.0052399999 0.78600001
0.056142855 0.0052399999 0.78600001
0.057493336 0.005226667 0.78400004
0.058836192 0.0052133338 0.78200006
0.060171433 0.0052 0.78000003
0.061657146 0.0052 0.78000003
0.063061908 0.0051933331 0.77900004
0.064545713 0.0051933331 0.77900004
0.066029526 0.0051933331 0.77900004
0.067513339 0.0051933331 0.77900004
0.068997145 0.0051933331 0.77900004
0.070480958 0.0051933331 0.77900004
0.071964763 0.0051933331 0.77900004
0.073448576 0.0051933331 0.77900004
0.074932382 0.0051933331 0.77900004
0.076416194 0.0051933331 0.77900004
0.077699997 0.0051799999 0.77700001
0.079180002 0.0051799999 0.77700001
0.08066 0.0051799999 0.77700001
0.081928574 0.0051666666 0.77500004
0.083404765 0.0051666666 0.77500004
0.084880956 0.0051666666 0.77500004
0.086357147 0.0051666666 0.77500004
0.087833337 0.0051666666 0.77500004
0.089539997 0.0051799999 0.77700001
0.091605715 0.0052133338 0.78200006
0.093333341 0.005226667 0.78400004
0.094826676 0.005226667 0.78400004
0.096565716 0.0052399999 0.78600001
0.098062858 0.0052399999 0.78600001
0.099940002 0.00526 0.78900003
0.10221429 0.0052999998 0.79500002
0.10412 0.0053200005 0.79800004
0.10590477 0.0053333333 0.80000001
0.10796572 0.0053600003 0.80400002
0.10976953 0.0053733336 0.80600005
0.11240952 0.0054266667 0.81400001
0.11396001 0.0054266667 0.81400001
0.11565238 0.0054333336 0.81500006
0.11778001 0.0054600001 0.81900007
0.11992285 0.0054866667 0.82300001
0.12208095 0.0055133332 0.82700002
0.12395525 0.005526667 0.82900006
0.12583713 0.0055400003 0.83100003
0.12741999 0.0055400003 0.83100003
0.12931333 0.0055533336 0.83300006
0.13184287 0.0055933334 0.83900005
0.13439524 0.0056333332 0.84500003
0.13680953 0.0056666667 0.85000002
0.13875429 0.0056799999 0.85200006
0.1410362 0.005706667 0.85600007
0.14300001 0.0057200002 0.85800004
0.14497143 0.0057333331 0.86000001
0.14695048 0.0057466668 0.86200005
0.14945428 0.0057800002 0.86700004
0.15145428 0.0057933335 0.86900002
0.15381429 0.0058200001 0.87300003
0.15636761 0.005853333 0.87800002
0.15876 0.0058800001 0.88200003
0.16080381 0.0058933338 0.88400006
0.16340667 0.0059266672 0.88900006
0.16602859 0.0059600002 0.89400005
0.16810668 0.0059733335 0.89600003
0.17076096 0.0060066669 0.90100002
0.17286 0.0060200007 0.90300006
0.17496668 0.0060333335 0.90500003
0.17766666 0.0060666669 0.91000003
0.17999144 0.0060866671 0.91300005
0.18212856 0.0061000003 0.91500002
0.18588097 0.0061666667 0.92500007
0.18804857 0.00618 0.92700005
0.1908381 0.0062133335 0.93200004
0.19364667 0.0062466664 0.93700004
0.19605716 0.006266667 0.94000006
0.19826858 0.0062800003 0.94200003
0.20133716 0.0063200006 0.94800007
0.20357144 0.0063333339 0.95000005
0.20602953 0.0063533336 0.95300007
0.20893526 0.006386667 0.95800006
0.21076001 0.006386667 0.95800006
0.21369429 0.00642 0.96300006
0.21866192 0.0065133334 0.97700006
0.22052287 0.0065133334 0.97700006
0.22306667 0.0065333336 0.98000002
0.22562192 0.0065533337 0.98300004
0.22749428 0.0065533337 0.98300004
0.010140001 0.0070200008 0.81900007
0.011700001 0.0070200008 0.81900007
0.01322762 0.007002857 0.81700003
0.01478381 0.007002857 0.81700003
0.016300002 0.0069857147 0.81500006
0.017852381 0.0069857147 0.81500006
0.019380953 0.0069771428 0.81400001
0.020931428 0.0069771428 0.81400001
0.022426667 0.0069600004 0.81200004
0.023914289 0.0069428575 0.81000006
0.02533143 0.0069085718 0.80600005
0.026800001 0.0068914285 0.80400002
0.028260954 0.0068742861 0.80200005
0.029714286 0.0068571432 0.80000001
0.031160003 0.0068399999 0.79800004
0.032680001 0.0068399999 0.79800004
0.034157146 0.006831429 0.79700005
0.035675243 0.006831429 0.79700005
0.037100002 0.0068142856 0.79500002
0.038614288 0.0068142856 0.79500002
0.040027622 0.0067971433 0.79300004
0.041538097 0.0067971433 0.79300004
0.042940002 0.0067799999 0.79100001
0.044446666 0.0067799999 0.79100001
0.045837145 0.0067628575 0.78900003
0.047280002 0.0067542861 0.78800005
0.048780952 0.0067542861 0.78800005
0.050281905 0.0067542861 0.78800005
0.051782858 0.0067542861 0.78800005
0.053148571 0.0067371433 0.78600001
0.054645717 0.0067371433 0.78600001
0.056142855 0.0067371433 0.78600001
0.057493336 0.0067199999 0.78400004
0.058836192 0.0067028576 0.78200006
0.060171433 0.0066857147 0.78000003
0.061657146 0.0066857147 0.78000003
0.063142858 0.0066857147 0.78000003
0.064545713 0.0066771433 0.77900004
0.066114292 0.0066857147 0.78000003
0.067600004 0.0066857147 0.78000003
0.069085717 0.0066857147 0.78000003
0.070480958 0.0066771433 0.77900004
0.071964763 0.0066771433 0.77900004
0.073448576 0.0066771433 0.77900004
0.074932382 0.0066771433 0.77900004
0.076219998 0.00666 0.77700001
0.077699997 0.00666 0.77700001
0.079180002 0.00666 0.77700001
0.08066 0.00666 0.77700001
0.081928574 0.0066428576 0.77500004
0.083404765 0.0066428576 0.77500004
0.084880956 0.0066428576 0.77500004
0.086134292 0.0066257147 0.77300006
0.087833337 0.0066428576 0.77500004
0.089770481 0.0066771433 0.77900004
0.091840006 0.0067199999 0.78400004
0.093333341 0.0067199999 0.78400004
0.094826676 0.0067199999 0.78400004
0.096565716 0.0067371433 0.78600001
0.098062858 0.0067371433 0.78600001
0.099940002 0.0067628575 0.78900003
0.1026 0.0068399999 0.79800004
0.10438095 0.0068571432 0.80000001
0.10590477 0.0068571432 0.80000001
0.10769715 0.0068742861 0.80200005
0.10976953 0.0069085718 0.80600005
0.11240952 0.0069771428 0.81400001
0.11410001 0.0069857147 0.81500006
0.11551048 0.0069771428 0.81400001
0.11778001 0.0070200008 0.81900007
0.11992285 0.0070542856 0.82300001
0.12208095 0.0070885718 0.82700002
0.12425429 0.007122857 0.83100003
0.12614 0.0071400008 0.83300006
0.12772667 0.0071400008 0.83300006
0.12931333 0.0071400008 0.83300006
0.13152857 0.0071742856 0.83700001
0.13439524 0.0072428575 0.84500003
0.13680953 0.0072857141 0.85000002
0.13908 0.0073200003 0.85400003
0.1410362 0.0073371432 0.85600007
0.14300001 0.0073542856 0.85800004
0.14497143 0.0073714289 0.86000001
0.14695048 0.0073885717 0.86200005
0.14945428 0.0074314289 0.86700004
0.15180287 0.0074657151 0.87100005
0.15416668 0.0075000003 0.87500006
0.15636761 0.0075257146 0.87800002
0.15876 0.0075600003 0.88200003
0.16080381 0.0075771431 0.88400006
0.16340667 0.0076200003 0.88900006
0.16602859 0.0076628574 0.89400005
0.1684819 0.0076971436 0.89800006
0.17076096 0.0077228574 0.90100002
0.17247714 0.0077228574 0.90100002
0.17554668 0.0077828579 0.90800005
0.17825238 0.0078257145 0.91300005
0.18038571 0.0078428574 0.91500002
0.18252668 0.0078600002 0.91700006
0.1852781 0.0079028569 0.92200005
0.18804857 0.0079457145 0.92700005
0.1908381 0.0079885721 0.93200004
0.19364667 0.0080314288 0.93700004
0.19605716 0.0080571435 0.94000006
0.19826858 0.0080742864 0.94200003
0.20133716 0.008125715 0.94800007
0.20357144 0.0081428569 0.95000005
0.20602953 0.0081685716 0.95300007
0.20893526 0.0082114292 0.95800006
0.21142001 0.008237143 0.96100003
0.21369429 0.0082542859 0.96300006
0.21799049 0.0083485721 0.97400004
0.2212 0.0083999997 0.98000002
0.22306667 0.0083999997 0.98000002
0.22562192 0.0084257144 0.98300004
0.22749428 0.0084257144 0.98300004
0.010140001 0.0085800011 0.81900007
0.011700001 0.0085800011 0.81900007
0.01322762 0.0085590482 0.81700003
0.01478381 0.0085590482 0.81700003
0.016300002 0.0085380953 0.81500006
0.017852381 0.0085380953 0.81500006
0.019380953 0.0085276198 0.81400001
0.020880001 0.0085066669 0.81200004
0.022426667 0.0085066669 0.81200004
0.023914289 0.0084857149 0.81000006
0.025394287 0.008464762 0.80800003
0.026866667 0.00844381 0.80600005
0.028260954 0.0084019052 0.80200005
0.029714286 0.0083809523 0.80000001
0.031160003 0.0083600003 0.79800004
0.032680001 0.0083600003 0.79800004
0.034157146 0.0083495239 0.79700005
0.035675243 0.0083495239 0.79700005
0.037100002 0.008328571 0.79500002
0.038614288 0.008328571 0.79500002
0.040027622 0.008307619 0.79300004
0.041538097 0.008307619 0.79300004
0.042940002 0.0082866671 0.79100001
0.044446666 0.0082866671 0.79100001
0.045837145 0.0082657151 0.78900003
0.047280002 0.0082552386 0.78800005
0.048780952 0.0082552386 0.78800005
0.050281905 0.0082552386 0.78800005
0.051651429 0.0082342857 0.78600001
0.053148571 0.0082342857 0.78600001
0.054645717 0.0082342857 0.78600001
0.056142855 0.0082342857 0.78600001
0.057493336 0.0082133338 0.78400004
0.058836192 0.0081923818 0.78200006
0.060325719 0.0081923818 0.78200006
0.061657146 0.008171428 0.78000003
0.063142858 0.008171428 0.78000003
0.064628571 0.008171428 0.78000003
0.066114292 0.008171428 0.78000003
0.067600004 0.008171428 0.78000003
0.069085717 0.008171428 0.78000003
0.07057143 0.008171428 0.78000003
0.072057143 0.008171428 0.78000003
0.073448576 0.0081609525 0.77900004
0.074932382 0.0081609525 0.77900004
0.076219998 0.0081399996 0.77700001
0.077699997 0.0081399996 0.77700001
0.079180002 0.0081399996 0.77700001
0.08066 0.0081399996 0.77700001
0.081928574 0.0081190476 0.77500004
0.083404765 0.0081190476 0.77500004
0.084880956 0.0081190476 0.77500004
0.086134292 0.0080980957 0.77300006
0.087833337 0.0081190476 0.77500004
0.089770481 0.0081609525 0.77900004
0.091840006 0.0082133338 0.78400004
0.093333341 0.0082133338 0.78400004
0.094826676 0.0082133338 0.78400004
0.096565716 0.0082342857 0.78600001
0.098062858 0.0082342857 0.78600001
0.099940002 0.0082657151 0.78900003
0.10247143 0.0083495239 0.79700005
0.10412 0.0083600003 0.79800004
0.10590477 0.0083809523 0.80000001
0.10769715 0.0084019052 0.80200005
0.10976953 0.00844381 0.80600005
0.11185715 0.0084857149 0.81000006
0.11368001 0.0085066669 0.81200004
0.11551048 0.0085276198 0.81400001
0.11720477 0.0085380953 0.81500006
0.11963143 0.0086009521 0.82100004
0.12178572 0.0086428579 0.82500005
0.12425429 0.0087057147 0.83100003
0.12583713 0.0087057147 0.83100003
0.12772667 0.0087266676 0.83300006
0.12962382 0.0087476196 0.83500004
0.13152857 0.0087685715 0.83700001
0.13375905 0.0088104764 0.84100002
0.13648763 0.0088838106 0.84800005
0.13908 0.0089466665 0.85400003
0.1410362 0.0089676194 0.85600007
0.14300001 0.0089885723 0.85800004
0.14463429 0.0089885723 0.85800004
0.14746191 0.0090619046 0.86500007
0.14910954 0.0090619046 0.86500007
0.15180287 0.0091247624 0.87100005
0.15416668 0.0091666672 0.87500006
0.15636761 0.0091980947 0.87800002
0.15876 0.0092400005 0.88200003
0.16080381 0.0092609534 0.88400006
0.16340667 0.0093133338 0.88900006
0.16547143 0.0093342857 0.89100003
0.16810668 0.0093866661 0.89600003
0.17076096 0.0094390474 0.90100002
0.17286 0.0094600003 0.90300006
0.17554668 0.0095123816 0.90800005
0.17825238 0.009564762 0.91300005
0.18038571 0.0095857149 0.91500002
0.18252668 0.0096066678 0.91700006
0.1848762 0.0096380953 0.92000002
0.18804857 0.0097114285 0.92700005
0.1908381 0.0097638099 0.93200004
0.19364667 0.0098161902 0.93700004
0.19605716 0.0098476186 0.94000006
0.19890001 0.0098999999 0.94500005
0.20133716 0.0099314293 0.94800007
0.20357144 0.0099523813 0.95000005
0.20602953 0.0099838106 0.95300007
0.20828095 0.010004762 0.95500004
0.21142001 0.010067619 0.96100003
0.21369429 0.010088571 0.96300006
0.21866192 0.010235239 0.97700006
0.2212 0.010266667 0.98000002
0.22374953 0.010298096 0.98300004
0.22562192 0.010298096 0.98300004
0.010164762 0.010164762 0.82100004
0.011700001 0.010140001 0.81900007
0.01322762 0.010115238 0.81700003
0.01474762 0.010090477 0.81500006
0.016300002 0.010090477 0.81500006
0.017852381 0.010090477 0.81500006
0.019380953 0.010078095 0.81400001
0.020880001 0.010053334 0.81200004
0.02237143 0.010028572 0.81000006
0.023914289 0.010028572 0.81000006
0.02533143 0.0099790478 0.80600005
0.026866667 0.0099790478 0.80600005
0.028260954 0.0099295247 0.80200005
0.029788572 0.0099295247 0.80200005
0.031160003 0.0098800007 0.79800004
0.032680001 0.0098800007 0.79800004
0.034157146 0.0098676197 0.79700005
0.035675243 0.0098676197 0.79700005
0.037100002 0.0098428568 0.79500002
0.038614288 0.0098428568 0.79500002
0.040027622 0.0098180957 0.79300004
0.041538097 0.0098180957 0.79300004
0.042940002 0.0097933328 0.79100001
0.044446666 0.0097933328 0.79100001
0.045837145 0.0097685717 0.78900003
0.047280002 0.0097561907 0.78800005
0.048780952 0.0097561907 0.78800005
0.050281905 0.0097561907 0.78800005
0.051651429 0.0097314287 0.78600001
0.053148571 0.0097314287 0.78600001
0.054645717 0.0097314287 0.78600001
0.056000002 0.0097066667 0.78400004
0.057493336 0.0097066667 0.78400004
0.058836192 0.0096819047 0.78200006
0.060325719 0.0096819047 0.78200006
0.061657146 0.0096571427 0.78000003
0.063142858 0.0096571427 0.78000003
0.064628571 0.0096571427 0.78000003
0.066114292 0.0096571427 0.78000003
0.067600004 0.0096571427 0.78000003
0.069085717 0.0096571427 0.78000003
0.070480958 0.0096447626 0.77900004
0.071964763 0.0096447626 0.77900004
0.073448576 0.0096447626 0.77900004
0.074932382 0.0096447626 0.77900004
0.076219998 0.0096199997 0.77700001
0.077699997 0.0096199997 0.77700001
0.079180002 0.0096199997 0.77700001
0.08066 0.0096199997 0.77700001
0.082139999 0.0096199997 0.77700001
0.083404765 0.0095952386 0.77500004
0.084880956 0.0095952386 0.77500004
0.086357147 0.0095952386 0.77500004
0.088059999 0.0096199997 0.77700001
0.089770481 0.0096447626 0.77900004
0.091605715 0.0096819047 0.78200006
0.093095243 0.0096819047 0.78200006
0.094826676 0.0097066667 0.78400004
0.096320003 0.0097066667 0.78400004
0.098062858 0.0097314287 0.78600001
0.10019334 0.0097933328 0.79100001
0.1017 0.0097933328 0.79100001
0.10412 0.0098800007 0.79800004
0.10590477 0.0099047627 0.80000001
0.10769715 0.0099295247 0.80200005
0.10949714 0.0099542858 0.80400002
0.11185715 0.010028572 0.81000006
0.11368001 0.010053334 0.81200004
0.11522667 0.010053334 0.81200004
0.11749239 0.010115238 0.81700003
0.11963143 0.010164762 0.82100004
0.12178572 0.010214286 0.82500005
0.12455334 0.010313334 0.83300006
0.12644285 0.010338096 0.83500004
0.12803334 0.010338096 0.83500004
0.12962382 0.010338096 0.83500004
0.13152857 0.010362858 0.83700001
0.13375905 0.010412381 0.84100002
0.13648763 0.010499048 0.84800005
0.13908 0.010573333 0.85400003
0.1410362 0.010598096 0.85600007
0.14333333 0.010647619 0.86000001
0.14530857 0.010672381 0.86200005
0.14746191 0.010709524 0.86500007
0.14945428 0.010734286 0.86700004
0.15180287 0.01078381 0.87100005
0.15416668 0.010833334 0.87500006
0.15636761 0.010870476 0.87800002
0.15876 0.01092 0.88200003
0.16080381 0.010944762 0.88400006
0.16340667 0.011006667 0.88900006
0.16602859 0.011068572 0.89400005
0.16810668 0.011093334 0.89600003
0.17019239 0.011118095 0.89800006
0.17286 0.01118 0.90300006
0.17496668 0.011204762 0.90500003
0.17766666 0.011266666 0.91000003
0.18038571 0.011328571 0.91500002
0.18252668 0.011353333 0.91700006
0.1848762 0.011390476 0.92000002
0.18804857 0.011477144 0.92700005
0.1908381 0.011539048 0.93200004
0.19426668 0.011638097 0.94000006
0.19647428 0.011662858 0.94200003
0.19890001 0.011700001 0.94500005
0.20133716 0.011737144 0.94800007
0.20357144 0.011761905 0.95000005
0.20538096 0.011761905 0.95000005
0.20784478 0.011799049 0.95300007
0.21142001 0.011898095 0.96100003
0.21436 0.011960001 0.96600002
0.21799049 0.012059048 0.97400004
0.22052287 0.012096192 0.97700006
0.22306667 0.012133333 0.98000002
0.22562192 0.012170476 0.98300004
0.010140001 0.011700001 0.81900007
0.011671429 0.011671429 0.81700003
0.01322762 0.011671429 0.81700003
0.01474762 0.011642857 0.81500006
0.016300002 0.011642857 0.81500006
0.017830476 0.011628571 0.81400001
0.019380953 0.011628571 0.81400001
0.020880001 0.0116 0.81200004
0.02237143 0.011571429 0.81000006
0.023855237 0.011542858 0.80800003
0.025394287 0.011542858 0.80800003
0.026866667 0.011514287 0.80600005
0.028331429 0.011485714 0.80400002
0.029788572 0.011457143 0.80200005
0.031238094 0.011428571 0.80000001
0.032680001 0.0114 0.79800004
0.034157146 0.011385715 0.79700005
0.035675243 0.011385715 0.79700005
0.037100002 0.011357143 0.79500002
0.038517144 0.011328571 0.79300004
0.040027622 0.011328571 0.79300004
0.041538097 0.011328571 0.79300004
0.043048576 0.011328571 0.79300004
0.044334289 0.011271429 0.78900003
0.045779053 0.011257144 0.78800005
0.047280002 0.011257144 0.78800005
0.048780952 0.011257144 0.78800005
0.050281905 0.011257144 0.78800005
0.051651429 0.011228572 0.78600001
0.053148571 0.011228572 0.78600001
0.054645717 0.011228572 0.78600001
0.056000002 0.011200001 0.78400004
0.057493336 0.011200001 0.78400004
0.058836192 0.011171429 0.78200006
0.060325719 0.011171429 0.78200006
0.061657146 0.011142857 0.78000003
0.063142858 0.011142857 0.78000003
0.064628571 0.011142857 0.78000003
0.066114292 0.011142857 0.78000003
0.067600004 0.011142857 0.78000003
0.069085717 0.011142857 0.78000003
0.070480958 0.011128572 0.77900004
0.071964763 0.011128572 0.77900004
0.073448576 0.011128572 0.77900004
0.074932382 0.011128572 0.77900004
0.076219998 0.0111 0.77700001
0.077699997 0.0111 0.77700001
0.079180002 0.0111 0.77700001
0.08066 0.0111 0.77700001
0.082139999 0.0111 0.77700001
0.083404765 0.01107143 0.77500004
0.084880956 0.01107143 0.77500004
0.086357147 0.01107143 0.77500004
0.088059999 0.0111 0.77700001
0.089770481 0.011128572 0.77900004
0.091254294 0.011128572 0.77900004
0.093095243 0.011171429 0.78200006
0.094826676 0.011200001 0.78400004
0.096320003 0.011200001 0.78400004
0.098062858 0.011228572 0.78600001
0.10044667 0.011328571 0.79300004
0.1026 0.0114 0.79800004
0.10412 0.0114 0.79800004
0.10590477 0.011428571 0.80000001
0.10769715 0.011457143 0.80200005
0.10949714 0.011485714 0.80400002
0.11185715 0.011571429 0.81000006
0.11368001 0.0116 0.81200004
0.11565238 0.011642857 0.81500006
0.11749239 0.011671429 0.81700003
0.11963143 0.011728572 0.82100004
0.12178572 0.011785715 0.82500005
0.12425429 0.011871428 0.83100003
0.12614 0.0119 0.83300006
0.12772667 0.0119 0.83300006
0.12962382 0.011928571 0.83500004
0.13152857 0.011957143 0.83700001
0.13375905 0.012014287 0.84100002
0.13648763 0.012114286 0.84800005
0.13908 0.012200001 0.85400003
0.1410362 0.012228573 0.85600007
0.14333333 0.012285715 0.86000001
0.14497143 0.012285715 0.86000001
0.14746191 0.012357144 0.86500007
0.14945428 0.012385715 0.86700004
0.15215144 0.012471429 0.87300003
0.15416668 0.012500001 0.87500006
0.15636761 0.012542857 0.87800002
0.15876 0.0126 0.88200003
0.16080381 0.012628572 0.88400006
0.16340667 0.012700001 0.88900006
0.16602859 0.012771429 0.89400005
0.1684819 0.012828573 0.89800006
0.17076096 0.012871428 0.90100002
0.17286 0.0129 0.90300006
0.17554668 0.012971429 0.90800005
0.17766666 0.013 0.91000003
0.18038571 0.013071429 0.91500002
0.18252668 0.013100001 0.91700006
0.1848762 0.013142857 0.92000002
0.18804857 0.013242858 0.92700005
0.1908381 0.013314286 0.93200004
0.19364667 0.013385714 0.93700004
0.19647428 0.013457143 0.94200003
0.19890001 0.013500001 0.94500005
0.20133716 0.013542858 0.94800007
0.20357144 0.013571429 0.95000005
0.20538096 0.013571429 0.95000005
0.20784478 0.013614287 0.95300007
0.21142001 0.013728571 0.96100003
0.21436 0.013800001 0.96600002
0.21866192 0.013957144 0.97700006
0.2212 0.014 0.98000002
0.22306667 0.014 0.98000002
0.22562192 0.014042858 0.98300004
0.22795714 0.01407143 0.98500007
0.010140001 0.013260001 0.81900007
0.011700001 0.013260001 0.81900007
0.013260001 0.013260001 0.81900007
0.01478381 0.01322762 0.81700003
0.016300002 0.013195239 0.81500006
0.017852381 0.013195239 0.81500006
0.019404763 0.013195239 0.81500006
0.020931428 0.013179048 0.81400001
0.022426667 0.013146668 0.81200004
0.023914289 0.013114287 0.81000006
0.025394287 0.013081905 0.80800003
0.026866667 0.013049524 0.80600005
0.028331429 0.013017143 0.80400002
0.029788572 0.012984763 0.80200005
0.031238094 0.012952381 0.80000001
0.032680001 0.012920001 0.79800004
0.034157146 0.01290381 0.79700005
0.035675243 0.01290381 0.79700005
0.037100002 0.012871428 0.79500002
0.038517144 0.012839048 0.79300004
0.040027622 0.012839048 0.79300004
0.041538097 0.012839048 0.79300004
0.042940002 0.012806667 0.79100001
0.044334289 0.012774286 0.78900003
0.045779053 0.012758096 0.78800005
0.047280002 0.012758096 0.78800005
0.048657142 0.012725715 0.78600001
0.050281905 0.012758096 0.78800005
0.051651429 0.012725715 0.78600001
0.053148571 0.012725715 0.78600001
0.054645717 0.012725715 0.78600001
0.056000002 0.012693334 0.78400004
0.057493336 0.012693334 0.78400004
0.058836192 0.012660953 0.78200006
0.060325719 0.012660953 0.78200006
0.061657146 0.012628571 0.78000003
0.063304767 0.012660953 0.78200006
0.064628571 0.012628571 0.78000003
0.066114292 0.012628571 0.78000003
0.067513339 0.012612382 0.77900004
0.068997145 0.012612382 0.77900004
0.070480958 0.012612382 0.77900004
0.071964763 0.012612382 0.77900004
0.073448576 0.012612382 0.77900004
0.07474 0.012580001 0.77700001
0.076219998 0.012580001 0.77700001
0.077699997 0.012580001 0.77700001
0.079180002 0.012580001 0.77700001
0.080452383 0.012547619 0.77500004
0.081928574 0.012547619 0.77500004
0.083404765 0.012547619 0.77500004
0.084880956 0.012547619 0.77500004
0.086357147 0.012547619 0.77500004
0.088059999 0.012580001 0.77700001
0.089539997 0.012580001 0.77700001
0.091254294 0.012612382 0.77900004
0.092857152 0.012628571 0.78000003
0.094584771 0.012660953 0.78200006
0.096565716 0.012725715 0.78600001
0.098312385 0.012758096 0.78800005
0.10044667 0.012839048 0.79300004
0.10247143 0.01290381 0.79700005
0.10412 0.012920001 0.79800004
0.10590477 0.012952381 0.80000001
0.10796572 0.013017143 0.80400002
0.10976953 0.013049524 0.80600005
0.11185715 0.013114287 0.81000006
0.11368001 0.013146668 0.81200004
0.11551048 0.013179048 0.81400001
0.11720477 0.013195239 0.81500006
0.11934 0.013260001 0.81900007
0.12149048 0.013324762 0.82300001
0.12425429 0.013454286 0.83100003
0.12644285 0.013519048 0.83500004
0.12803334 0.013519048 0.83500004
0.12962382 0.013519048 0.83500004
0.13152857 0.013551429 0.83700001
0.13407715 0.013648572 0.84300005
0.13713144 0.013794287 0.85200006
0.13908 0.013826667 0.85400003
0.1410362 0.013859048 0.85600007
0.14300001 0.013891429 0.85800004
0.14497143 0.013923809 0.86000001
0.14746191 0.014004762 0.86500007
0.14945428 0.014037143 0.86700004
0.15215144 0.014134286 0.87300003
0.15416668 0.014166667 0.87500006
0.15636761 0.014215238 0.87800002
0.15876 0.014280001 0.88200003
0.16080381 0.014312382 0.88400006
0.16303906 0.014360953 0.88700002
0.16602859 0.014474287 0.89400005
0.1684819 0.014539048 0.89800006
0.17076096 0.014587619 0.90100002
0.17286 0.01462 0.90300006
0.17496668 0.014652381 0.90500003
0.17766666 0.014733333 0.91000003
0.18038571 0.014814286 0.91500002
0.18252668 0.014846667 0.91700006
0.1848762 0.014895238 0.92000002
0.18804857 0.015008572 0.92700005
0.1908381 0.015089524 0.93200004
0.19364667 0.015170476 0.93700004
0.19605716 0.015219049 0.94000006
0.19826858 0.015251428 0.94200003
0.20133716 0.015348572 0.94800007
0.20357144 0.015380953 0.95000005
0.20602953 0.015429524 0.95300007
0.20828095 0.015461905 0.95500004
0.21142001 0.015559047 0.96100003
0.21369429 0.015591429 0.96300006
0.21799049 0.015769524 0.97400004
0.22052287 0.015818097 0.97700006
0.22306667 0.015866667 0.98000002
0.22562192 0.015915239 0.98300004
0.22795714 0.015947619 0.98500007
0.010164762 0.014856191 0.82100004
0.011728572 0.014856191 0.82100004
0.013260001 0.014820001 0.81900007
0.01474762 0.01474762 0.81500006
0.016300002 0.01474762 0.81500006
0.017830476 0.014729524 0.81400001
0.019380953 0.014729524 0.81400001
0.020880001 0.014693334 0.81200004
0.02237143 0.014657144 0.81000006
0.023914289 0.014657144 0.81000006
0.025394287 0.014620952 0.80800003
0.026866667 0.014584763 0.80600005
0.028260954 0.014512382 0.80200005
0.029788572 0.014512382 0.80200005
0.031238094 0.01447619 0.80000001
0.032680001 0.01444 0.79800004
0.034157146 0.014421905 0.79700005
0.035675243 0.014421905 0.79700005
0.037100002 0.014385714 0.79500002
0.038517144 0.014349524 0.79300004
0.040027622 0.014349524 0.79300004
0.041538097 0.014349524 0.79300004
0.042940002 0.014313334 0.79100001
0.044334289 0.014277143 0.78900003
0.045837145 0.014277143 0.78900003
0.047280002 0.014259049 0.78800005
0.048780952 0.014259049 0.78800005
0.050281905 0.014259049 0.78800005
0.051782858 0.014259049 0.78800005
0.053148571 0.014222857 0.78600001
0.054645717 0.014222857 0.78600001
0.056142855 0.014222857 0.78600001
0.057493336 0.014186667 0.78400004
0.058986671 0.014186667 0.78400004
0.060325719 0.014150478 0.78200006
0.061815243 0.014150478 0.78200006
0.063304767 0.014150478 0.78200006
0.064628571 0.014114286 0.78000003
0.066114292 0.014114286 0.78000003
0.067513339 0.014096191 0.77900004
0.068997145 0.014096191 0.77900004
0.070480958 0.014096191 0.77900004
0.071964763 0.014096191 0.77900004
0.073260002 0.01406 0.77700001
0.07474 0.01406 0.77700001
0.076219998 0.01406 0.77700001
0.077699997 0.01406 0.77700001
0.079180002 0.01406 0.77700001
0.08066 0.01406 0.77700001
0.081928574 0.01402381 0.77500004
0.083404765 0.01402381 0.77500004
0.084880956 0.01402381 0.77500004
0.086580001 0.01406 0.77700001
0.088059999 0.01406 0.77700001
0.089770481 0.014096191 0.77900004
0.091254294 0.014096191 0.77900004
0.093095243 0.014150478 0.78200006
0.094826676 0.014186667 0.78400004
0.096565716 0.014222857 0.78600001
0.098437145 0.014277143 0.78900003
0.10044667 0.014349524 0.79300004
0.10247143 0.014421905 0.79700005
0.10412 0.01444 0.79800004
0.10590477 0.01447619 0.80000001
0.10796572 0.014548571 0.80400002
0.10976953 0.014584763 0.80600005
0.11185715 0.014657144 0.81000006
0.11368001 0.014693334 0.81200004
0.11551048 0.014729524 0.81400001
0.11720477 0.01474762 0.81500006
0.11934 0.014820001 0.81900007
0.12149048 0.014892381 0.82300001
0.12395525 0.015000953 0.82900006
0.12614 0.015073335 0.83300006
0.12803334 0.015109524 0.83500004
0.12962382 0.015109524 0.83500004
0.13152857 0.015145714 0.83700001
0.13487239 0.015344763 0.84800005
0.13713144 0.015417145 0.85200006
0.13908 0.015453333 0.85400003
0.1410362 0.015489525 0.85600007
0.14300001 0.015525714 0.85800004
0.14497143 0.015561905 0.86000001
0.14746191 0.015652383 0.86500007
0.14945428 0.015688572 0.86700004
0.15215144 0.015797142 0.87300003
0.15416668 0.015833335 0.87500006
0.15636761 0.01588762 0.87800002
0.15876 0.01596 0.88200003
0.16080381 0.015996192 0.88400006
0.16340667 0.016086668 0.88900006
0.16602859 0.016177142 0.89400005
0.1684819 0.016249524 0.89800006
0.17076096 0.016303809 0.90100002
0.17286 0.016340001 0.90300006
0.17554668 0.016430477 0.90800005
0.17766666 0.016466668 0.91000003
0.18038571 0.016557142 0.91500002
0.18252668 0.016593333 0.91700006
0.1852781 0.016683811 0.92200005
0.18804857 0.016774286 0.92700005
0.1908381 0.016864762 0.93200004
0.19364667 0.01695524 0.93700004
0.19605716 0.017009525 0.94000006
0.19826858 0.017045714 0.94200003
0.20133716 0.017154286 0.94800007
0.20357144 0.017190477 0.95000005
0.20538096 0.017190477 0.95000005
0.20784478 0.017244764 0.95300007
