# .PCD v0.7 - Point Cloud Data file format
VERSION 0.7
FIELDS x y z
SIZE 4 4 4
TYPE F F F
COUNT 1 1 1
WIDTH 1375
HEIGHT 1
VIEWPOINT 0 0 0 1 0 0 0
POINTS 1375
DATA ascii
-0.063334286 0.085227624 0.82100004
-0.061620004 0.085020006 0.81900007
-0.060060002 0.085020006 0.81900007
-0.058500003 0.085020006 0.81900007
-0.057079051 0.085227624 0.82100004
-0.055515241 0.085227624 0.82100004
-0.053951431 0.085227624 0.82100004
-0.052387621 0.085227624 0.82100004
-0.050823811 0.085227624 0.82100004
-0.049260002 0.085227624 0.82100004
-0.047580004 0.085020006 0.81900007
-0.046020001 0.085020006 0.81900007
-0.044460002 0.085020006 0.81900007
-0.0429 0.085020006 0.81900007
-0.041340005 0.085020006 0.81900007
-0.039780006 0.085020006 0.81900007
-0.038220003 0.085020006 0.81900007
-0.036749527 0.085227624 0.82100004
-0.035185717 0.085227624 0.82100004
-0.033540003 0.085020006 0.81900007
-0.03198 0.085020006 0.81900007
-0.030494286 0.085227624 0.82100004
-0.020738097 0.0904181 0.87100005
-0.019122858 0.090625718 0.87300003
-0.01746 0.090625718 0.87300003
-0.015833335 0.090833336 0.87500006
-0.12356572 0.089645721 0.84800005
-0.12195048 0.089645721 0.84800005
-0.11990952 0.08932858 0.84500003
-0.11802001 0.089117147 0.84300005
-0.11641429 0.089117147 0.84300005
-0.11453619 0.088905722 0.84100002
-0.11293428 0.088905722 0.84100002
-0.11133238 0.088905722 0.84100002
-0.10946953 0.088694289 0.83900005
-0.10761429 0.088482857 0.83700001
-0.10602 0.088482857 0.83700001
-0.10417619 0.088271432 0.83500004
-0.10209429 0.087848574 0.83100003
-0.10051143 0.087848574 0.83100003
-0.098928571 0.087848574 0.83100003
-0.097345717 0.087848574 0.83100003
-0.095762856 0.087848574 0.83100003
-0.093953341 0.087637149 0.82900006
-0.092374288 0.087637149 0.82900006
-0.090795241 0.087637149 0.82900006
-0.089216195 0.087637149 0.82900006
-0.087637149 0.087637149 0.82900006
-0.085850477 0.087425716 0.82700002
-0.084071428 0.087214291 0.82500005
-0.082500003 0.087214291 0.82500005
-0.080928579 0.087214291 0.82500005
-0.079164766 0.087002859 0.82300001
-0.077408575 0.086791433 0.82100004
-0.075844765 0.086791433 0.82100004
-0.074280955 0.086791433 0.82100004
-0.072894283 0.087002859 0.82300001
-0.071153335 0.086791433 0.82100004
-0.069589525 0.086791433 0.82100004
-0.068025716 0.086791433 0.82100004
-0.066461906 0.086791433 0.82100004
-0.064898096 0.086791433 0.82100004
-0.063180007 0.086580001 0.81900007
-0.061620004 0.086580001 0.81900007
-0.060060002 0.086580001 0.81900007
-0.058500003 0.086580001 0.81900007
-0.056940004 0.086580001 0.81900007
-0.055380005 0.086580001 0.81900007
-0.053951431 0.086791433 0.82100004
-0.052387621 0.086791433 0.82100004
-0.050700005 0.086580001 0.81900007
-0.049140003 0.086580001 0.81900007
-0.047580004 0.086580001 0.81900007
-0.04590762 0.086368576 0.81700003
-0.044351429 0.086368576 0.81700003
-0.042795237 0.086368576 0.81700003
-0.041239049 0.086368576 0.81700003
-0.039682858 0.086368576 0.81700003
-0.038126666 0.086368576 0.81700003
-0.036570478 0.086368576 0.81700003
-0.035185717 0.086791433 0.82100004
-0.033540003 0.086580001 0.81900007
-0.03198 0.086580001 0.81900007
-0.020738097 0.092077151 0.87100005
-0.019122858 0.092288569 0.87300003
-0.017500002 0.092500009 0.87500006
-0.01588762 0.092817143 0.87800002
-0.014215238 0.092817143 0.87800002
-0.12356572 0.091260955 0.84800005
-0.12195048 0.091260955 0.84800005
-0.11990952 0.090938091 0.84500003
-0.11802001 0.090722859 0.84300005
-0.11613809 0.090507619 0.84100002
-0.11453619 0.090507619 0.84100002
-0.11266571 0.090292387 0.83900005
-0.11106763 0.090292387 0.83900005
-0.10946953 0.090292387 0.83900005
-0.10761429 0.090077139 0.83700001
-0.10602 0.090077139 0.83700001
-0.10417619 0.089861907 0.83500004
-0.10258572 0.089861907 0.83500004
-0.10051143 0.089431427 0.83100003
-0.098928571 0.089431427 0.83100003
-0.097345717 0.089431427 0.83100003
-0.095762856 0.089431427 0.83100003
-0.093953341 0.089216195 0.82900006
-0.092374288 0.089216195 0.82900006
-0.090795241 0.089216195 0.82900006
-0.089216195 0.089216195 0.82900006
-0.087637149 0.089216195 0.82900006
-0.085850477 0.089000955 0.82700002
-0.084071428 0.088785723 0.82500005
-0.0823 0.088570476 0.82300001
-0.080928579 0.088785723 0.82500005
-0.079164766 0.088570476 0.82300001
-0.077408575 0.088355243 0.82100004
-0.075844765 0.088355243 0.82100004
-0.074280955 0.088355243 0.82100004
-0.072717145 0.088355243 0.82100004
-0.071153335 0.088355243 0.82100004
-0.069589525 0.088355243 0.82100004
-0.068025716 0.088355243 0.82100004
-0.066461906 0.088355243 0.82100004
-0.064898096 0.088355243 0.82100004
-0.063180007 0.088140003 0.81900007
-0.061620004 0.088140003 0.81900007
-0.060060002 0.088140003 0.81900007
-0.058500003 0.088140003 0.81900007
-0.056940004 0.088140003 0.81900007
-0.055380005 0.088140003 0.81900007
-0.053951431 0.088355243 0.82100004
-0.052387621 0.088355243 0.82100004
-0.050700005 0.088140003 0.81900007
-0.049140003 0.088140003 0.81900007
-0.047580004 0.088140003 0.81900007
-0.046020001 0.088140003 0.81900007
-0.044460002 0.088140003 0.81900007
-0.042795237 0.087924771 0.81700003
-0.041239049 0.087924771 0.81700003
-0.039682858 0.087924771 0.81700003
-0.038126666 0.087924771 0.81700003
-0.036570478 0.087924771 0.81700003
-0.035100002 0.088140003 0.81900007
-0.033621907 0.088355243 0.82100004
-0.020785715 0.093951426 0.87300003
-0.019122858 0.093951426 0.87300003
-0.017500002 0.094166674 0.87500006
-0.015833335 0.094166674 0.87500006
-0.014166667 0.094166674 0.87500006
-0.12518096 0.092876196 0.84800005
-0.12312857 0.092547618 0.84500003
-0.12151904 0.092547618 0.84500003
-0.11962572 0.092328578 0.84300005
-0.11802001 0.092328578 0.84300005
-0.11613809 0.092109524 0.84100002
-0.11453619 0.092109524 0.84100002
-0.11266571 0.091890484 0.83900005
-0.11106763 0.091890484 0.83900005
-0.10946953 0.091890484 0.83900005
-0.10761429 0.09167143 0.83700001
-0.10602 0.09167143 0.83700001
-0.10417619 0.091452383 0.83500004
-0.10234001 0.091233335 0.83300006
-0.10051143 0.091014288 0.83100003
-0.098928571 0.091014288 0.83100003
-0.097345717 0.091014288 0.83100003
-0.095762856 0.091014288 0.83100003
-0.093953341 0.090795241 0.82900006
-0.092374288 0.090795241 0.82900006
-0.090795241 0.090795241 0.82900006
-0.089216195 0.090795241 0.82900006
-0.087637149 0.090795241 0.82900006
-0.085850477 0.090576194 0.82700002
-0.084071428 0.090357147 0.82500005
-0.0823 0.0901381 0.82300001
-0.080732383 0.0901381 0.82300001
-0.078972384 0.089919046 0.82100004
-0.077408575 0.089919046 0.82100004
-0.075660005 0.089700006 0.81900007
-0.074280955 0.089919046 0.82100004
-0.072717145 0.089919046 0.82100004
-0.071153335 0.089919046 0.82100004
-0.069589525 0.089919046 0.82100004
-0.068025716 0.089919046 0.82100004
-0.066461906 0.089919046 0.82100004
-0.064898096 0.089919046 0.82100004
-0.063334286 0.089919046 0.82100004
-0.061620004 0.089700006 0.81900007
-0.060060002 0.089700006 0.81900007
-0.058500003 0.089700006 0.81900007
-0.056940004 0.089700006 0.81900007
-0.055380005 0.089700006 0.81900007
-0.053951431 0.089919046 0.82100004
-0.052387621 0.089919046 0.82100004
-0.050823811 0.089919046 0.82100004
-0.049260002 0.089919046 0.82100004
-0.047580004 0.089700006 0.81900007
-0.046020001 0.089700006 0.81900007
-0.044460002 0.089700006 0.81900007
-0.042795237 0.089480951 0.81700003
-0.041239049 0.089480951 0.81700003
-0.039682858 0.089480951 0.81700003
-0.038126666 0.089480951 0.81700003
-0.036570478 0.089480951 0.81700003
-0.035100002 0.089700006 0.81900007
-0.033376191 0.089261912 0.81500006
-0.03182381 0.089261912 0.81500006
-0.020785715 0.095614292 0.87300003
-0.019122858 0.095614292 0.87300003
-0.017500002 0.095833339 0.87500006
-0.015833335 0.095833339 0.87500006
-0.1247381 0.094157144 0.84500003
-0.12312857 0.094157144 0.84500003
-0.12151904 0.094157144 0.84500003
-0.11962572 0.09393429 0.84300005
-0.11802001 0.09393429 0.84300005
-0.11613809 0.093711428 0.84100002
-0.11426381 0.093488574 0.83900005
-0.11266571 0.093488574 0.83900005
-0.11106763 0.093488574 0.83900005
-0.10920857 0.093265712 0.83700001
-0.10761429 0.093265712 0.83700001
-0.10576668 0.093042865 0.83500004
-0.10417619 0.093042865 0.83500004
-0.10234001 0.092820004 0.83300006
-0.10051143 0.092597149 0.83100003
-0.098928571 0.092597149 0.83100003
-0.097345717 0.092597149 0.83100003
-0.095532387 0.092374288 0.82900006
-0.093953341 0.092374288 0.82900006
-0.092374288 0.092374288 0.82900006
-0.090795241 0.092374288 0.82900006
-0.089216195 0.092374288 0.82900006
-0.087637149 0.092374288 0.82900006
-0.085850477 0.092151433 0.82700002
-0.084071428 0.091928579 0.82500005
-0.0823 0.091705717 0.82300001
-0.080732383 0.091705717 0.82300001
-0.078972384 0.091482863 0.82100004
-0.077408575 0.091482863 0.82100004
-0.075660005 0.091260001 0.81900007
-0.074280955 0.091482863 0.82100004
-0.072717145 0.091482863 0.82100004
-0.071153335 0.091482863 0.82100004
-0.069589525 0.091482863 0.82100004
-0.068025716 0.091482863 0.82100004
-0.066461906 0.091482863 0.82100004
-0.064898096 0.091482863 0.82100004
-0.063334286 0.091482863 0.82100004
-0.061620004 0.091260001 0.81900007
-0.060060002 0.091260001 0.81900007
-0.058500003 0.091260001 0.81900007
-0.056940004 0.091260001 0.81900007
-0.055380005 0.091260001 0.81900007
-0.053951431 0.091482863 0.82100004
-0.052387621 0.091482863 0.82100004
-0.050823811 0.091482863 0.82100004
-0.049260002 0.091482863 0.82100004
-0.047696192 0.091482863 0.82100004
-0.046020001 0.091260001 0.81900007
-0.044460002 0.091260001 0.81900007
-0.042795237 0.091037147 0.81700003
-0.039682858 0.091037147 0.81700003
-0.038126666 0.091037147 0.81700003
-0.036480956 0.090814285 0.81500006
-0.034928575 0.090814285 0.81500006
-0.020738097 0.097054288 0.87100005
-0.019122858 0.09727715 0.87300003
-0.017500002 0.097500004 0.87500006
-0.01588762 0.097834289 0.87800002
-0.1247381 0.095766664 0.84500003
-0.12283715 0.095540009 0.84300005
-0.12151904 0.095766664 0.84500003
-0.11962572 0.095540009 0.84300005
-0.11774001 0.095313333 0.84100002
-0.11586191 0.095086671 0.83900005
-0.11426381 0.095086671 0.83900005
-0.11266571 0.095086671 0.83900005
-0.11106763 0.095086671 0.83900005
-0.10920857 0.094860002 0.83700001
-0.10735714 0.094633341 0.83500004
-0.10576668 0.094633341 0.83500004
-0.10417619 0.094633341 0.83500004
-0.10234001 0.094406672 0.83300006
-0.10051143 0.094179995 0.83100003
-0.098928571 0.094179995 0.83100003
-0.097345717 0.094179995 0.83100003
-0.095532387 0.093953341 0.82900006
-0.093953341 0.093953341 0.82900006
-0.092374288 0.093953341 0.82900006
-0.090576194 0.093726665 0.82700002
-0.089000955 0.093726665 0.82700002
-0.087425716 0.093726665 0.82700002
-0.085642859 0.093500003 0.82500005
-0.083867624 0.093273334 0.82300001
-0.0823 0.093273334 0.82300001
-0.080732383 0.093273334 0.82300001
-0.078972384 0.093046673 0.82100004
-0.077220008 0.092820004 0.81900007
-0.075660005 0.092820004 0.81900007
-0.074280955 0.093046673 0.82100004
-0.072717145 0.093046673 0.82100004
-0.071326666 0.093273334 0.82300001
-0.069589525 0.093046673 0.82100004
-0.068025716 0.093046673 0.82100004
-0.066461906 0.093046673 0.82100004
-0.064898096 0.093046673 0.82100004
-0.063334286 0.093046673 0.82100004
-0.061770476 0.093046673 0.82100004
-0.060060002 0.092820004 0.81900007
-0.058500003 0.092820004 0.81900007
-0.056940004 0.092820004 0.81900007
-0.055380005 0.092820004 0.81900007
-0.053951431 0.093046673 0.82100004
-0.052387621 0.093046673 0.82100004
-0.050700005 0.092820004 0.81900007
-0.049140003 0.092820004 0.81900007
-0.047696192 0.093046673 0.82100004
-0.046020001 0.092820004 0.81900007
-0.044460002 0.092820004 0.81900007
-0.039682858 0.092593342 0.81700003
-0.038033333 0.092366673 0.81500006
-0.036480956 0.092366673 0.81500006
-0.034928575 0.092366673 0.81500006
-0.033376191 0.092366673 0.81500006
-0.03182381 0.092366673 0.81500006
-0.019079048 0.098713338 0.87100005
-0.017500002 0.099166676 0.87500006
-0.01588762 0.099506669 0.87800002
-0.014312382 0.10018667 0.88400006
-0.1247381 0.09737619 0.84500003
-0.12254572 0.096915238 0.84100002
-0.12123144 0.097145721 0.84300005
-0.11962572 0.097145721 0.84300005
-0.11774001 0.096915238 0.84100002
-0.11586191 0.096684769 0.83900005
-0.11426381 0.096684769 0.83900005
-0.11266571 0.096684769 0.83900005
-0.11106763 0.096684769 0.83900005
-0.10920857 0.096454285 0.83700001
-0.10735714 0.096223809 0.83500004
-0.10576668 0.096223809 0.83500004
-0.10417619 0.096223809 0.83500004
-0.10234001 0.09599334 0.83300006
-0.10051143 0.095762856 0.83100003
-0.098928571 0.095762856 0.83100003
-0.097345717 0.095762856 0.83100003
-0.095532387 0.095532387 0.82900006
-0.093953341 0.095532387 0.82900006
-0.092151433 0.095301904 0.82700002
-0.090576194 0.095301904 0.82700002
-0.089000955 0.095301904 0.82700002
-0.087425716 0.095301904 0.82700002
-0.085435241 0.094840951 0.82300001
-0.083867624 0.094840951 0.82300001
-0.0823 0.094840951 0.82300001
-0.080732383 0.094840951 0.82300001
-0.078972384 0.094610475 0.82100004
-0.077408575 0.094610475 0.82100004
-0.075660005 0.094380006 0.81900007
-0.074280955 0.094610475 0.82100004
-0.072717145 0.094610475 0.82100004
-0.071153335 0.094610475 0.82100004
-0.069589525 0.094610475 0.82100004
-0.068025716 0.094610475 0.82100004
-0.066461906 0.094610475 0.82100004
-0.064898096 0.094610475 0.82100004
-0.063334286 0.094610475 0.82100004
-0.061770476 0.094610475 0.82100004
-0.060060002 0.094380006 0.81900007
-0.058500003 0.094380006 0.81900007
-0.056940004 0.094380006 0.81900007
-0.055380005 0.094380006 0.81900007
-0.053820003 0.094380006 0.81900007
-0.052387621 0.094610475 0.82100004
-0.050700005 0.094380006 0.81900007
-0.049140003 0.094380006 0.81900007
-0.047580004 0.094380006 0.81900007
-0.046020001 0.094380006 0.81900007
-0.044460002 0.094380006 0.81900007
-0.039682858 0.094149522 0.81700003
-0.038033333 0.093919054 0.81500006
-0.036480956 0.093919054 0.81500006
-0.034928575 0.093919054 0.81500006
-0.12123144 0.098751433 0.84300005
-0.11962572 0.098751433 0.84300005
-0.11774001 0.098517142 0.84100002
-0.11586191 0.098282859 0.83900005
-0.11426381 0.098282859 0.83900005
-0.11239714 0.098048575 0.83700001
-0.11080286 0.098048575 0.83700001
-0.10920857 0.098048575 0.83700001
-0.10735714 0.097814284 0.83500004
-0.10576668 0.097814284 0.83500004
-0.10392667 0.097580008 0.83300006
-0.10209429 0.097345717 0.83100003
-0.10051143 0.097345717 0.83100003
-0.09869048 0.097111441 0.82900006
-0.097345717 0.097345717 0.83100003
-0.095532387 0.097111441 0.82900006
-0.093953341 0.097111441 0.82900006
-0.092374288 0.097111441 0.82900006
-0.090576194 0.096877143 0.82700002
-0.089000955 0.096877143 0.82700002
-0.087214291 0.096642859 0.82500005
-0.085642859 0.096642859 0.82500005
-0.083867624 0.096408576 0.82300001
-0.0823 0.096408576 0.82300001
-0.080732383 0.096408576 0.82300001
-0.078972384 0.096174285 0.82100004
-0.077220008 0.095940009 0.81900007
-0.075660005 0.095940009 0.81900007
-0.07410001 0.095940009 0.81900007
-0.072540008 0.095940009 0.81900007
-0.071153335 0.096174285 0.82100004
-0.069589525 0.096174285 0.82100004
-0.067860007 0.095940009 0.81900007
-0.066300005 0.095940009 0.81900007
-0.064898096 0.096174285 0.82100004
-0.063334286 0.096174285 0.82100004
-0.061770476 0.096174285 0.82100004
-0.060060002 0.095940009 0.81900007
-0.058500003 0.095940009 0.81900007
-0.056940004 0.095940009 0.81900007
-0.055380005 0.095940009 0.81900007
-0.053820003 0.095940009 0.81900007
-0.052260004 0.095940009 0.81900007
-0.050700005 0.095940009 0.81900007
-0.04902 0.095705718 0.81700003
-0.047580004 0.095940009 0.81900007
-0.04590762 0.095705718 0.81700003
-0.044351429 0.095705718 0.81700003
-0.042795237 0.095705718 0.81700003
-0.041239049 0.095705718 0.81700003
-0.039585717 0.095471434 0.81500006
-0.038033333 0.095471434 0.81500006
-0.036480956 0.095471434 0.81500006
-0.035014287 0.095705718 0.81700003
-0.016050477 0.10390572 0.88700002
-0.12385239 0.099880956 0.83900005
-0.12123144 0.10035715 0.84300005
-0.11934191 0.10011905 0.84100002
-0.11586191 0.099880956 0.83900005
-0.11426381 0.099880956 0.83900005
-0.11239714 0.099642858 0.83700001
-0.11080286 0.099642858 0.83700001
-0.10920857 0.099642858 0.83700001
-0.10735714 0.099404767 0.83500004
-0.10576668 0.099404767 0.83500004
-0.10392667 0.099166676 0.83300006
-0.10234001 0.099166676 0.83300006
-0.10051143 0.098928571 0.83100003
-0.09869048 0.09869048 0.82900006
-0.097111441 0.09869048 0.82900006
-0.095532387 0.09869048 0.82900006
-0.093953341 0.09869048 0.82900006
-0.092151433 0.098452382 0.82700002
-0.090576194 0.098452382 0.82700002
-0.088785723 0.098214291 0.82500005
-0.087214291 0.098214291 0.82500005
-0.085642859 0.098214291 0.82500005
-0.083867624 0.097976193 0.82300001
-0.082100004 0.097738102 0.82100004
-0.080536194 0.097738102 0.82100004
-0.078972384 0.097738102 0.82100004
-0.077408575 0.097738102 0.82100004
-0.075660005 0.097500004 0.81900007
-0.074280955 0.097738102 0.82100004
-0.072540008 0.097500004 0.81900007
-0.071153335 0.097738102 0.82100004
-0.069589525 0.097738102 0.82100004
-0.067860007 0.097500004 0.81900007
-0.066461906 0.097738102 0.82100004
-0.064898096 0.097738102 0.82100004
-0.063334286 0.097738102 0.82100004
-0.061770476 0.097738102 0.82100004
-0.06020667 0.097738102 0.82100004
-0.058500003 0.097500004 0.81900007
-0.057079051 0.097738102 0.82100004
-0.055380005 0.097500004 0.81900007
-0.053951431 0.097738102 0.82100004
-0.052387621 0.097738102 0.82100004
-0.050700005 0.097500004 0.81900007
-0.04902 0.097261913 0.81700003
-0.047580004 0.097500004 0.81900007
-0.04590762 0.097261913 0.81700003
-0.044351429 0.097261913 0.81700003
-0.042795237 0.097261913 0.81700003
-0.041239049 0.097261913 0.81700003
-0.039585717 0.097023815 0.81500006
-0.038033333 0.097023815 0.81500006
-0.036480956 0.097023815 0.81500006
-0.12385239 0.10147905 0.83900005
-0.12254572 0.10172095 0.84100002
-0.12094381 0.10172095 0.84100002
-0.11746 0.10147905 0.83900005
-0.11586191 0.10147905 0.83900005
-0.11426381 0.10147905 0.83900005
-0.11239714 0.10123715 0.83700001
-0.11080286 0.10123715 0.83700001
-0.10920857 0.10123715 0.83700001
-0.10735714 0.10099524 0.83500004
-0.10576668 0.10099524 0.83500004
-0.10417619 0.10099524 0.83500004
-0.10234001 0.10075334 0.83300006
-0.10051143 0.10051143 0.83100003
-0.09869048 0.10026953 0.82900006
-0.097111441 0.10026953 0.82900006
-0.095532387 0.10026953 0.82900006
-0.093726665 0.10002762 0.82700002
-0.092151433 0.10002762 0.82700002
-0.090357147 0.099785723 0.82500005
-0.088570476 0.09954381 0.82300001
-0.087002859 0.09954381 0.82300001
-0.085435241 0.09954381 0.82300001
-0.083867624 0.09954381 0.82300001
-0.082100004 0.099301912 0.82100004
-0.080536194 0.099301912 0.82100004
-0.078972384 0.099301912 0.82100004
-0.077408575 0.099301912 0.82100004
-0.075844765 0.099301912 0.82100004
-0.074280955 0.099301912 0.82100004
-0.072717145 0.099301912 0.82100004
-0.071153335 0.099301912 0.82100004
-0.069589525 0.099301912 0.82100004
-0.068025716 0.099301912 0.82100004
-0.066461906 0.099301912 0.82100004
-0.064898096 0.099301912 0.82100004
-0.063334286 0.099301912 0.82100004
-0.061770476 0.099301912 0.82100004
-0.06020667 0.099301912 0.82100004
-0.058642861 0.099301912 0.82100004
-0.057079051 0.099301912 0.82100004
-0.055515241 0.099301912 0.82100004
-0.053951431 0.099301912 0.82100004
-0.052387621 0.099301912 0.82100004
-0.050700005 0.099060006 0.81900007
-0.04902 0.098818094 0.81700003
-0.047580004 0.099060006 0.81900007
-0.04590762 0.098818094 0.81700003
-0.044351429 0.098818094 0.81700003
-0.042795237 0.098818094 0.81700003
-0.041239049 0.098818094 0.81700003
-0.039682858 0.098818094 0.81700003
-0.038033333 0.098576196 0.81500006
-0.036480956 0.098576196 0.81500006
-0.12254572 0.10332286 0.84100002
-0.11746 0.10307714 0.83900005
-0.11586191 0.10307714 0.83900005
-0.11426381 0.10307714 0.83900005
-0.11239714 0.10283143 0.83700001
-0.11080286 0.10283143 0.83700001
-0.10920857 0.10283143 0.83700001
-0.10735714 0.10258572 0.83500004
-0.10576668 0.10258572 0.83500004
-0.10417619 0.10258572 0.83500004
-0.10234001 0.10234001 0.83300006
-0.10051143 0.10209429 0.83100003
-0.09869048 0.10184858 0.82900006
-0.097111441 0.10184858 0.82900006
-0.095301904 0.10160286 0.82700002
-0.093726665 0.10160286 0.82700002
-0.091928579 0.10135715 0.82500005
-0.090357147 0.10135715 0.82500005
-0.088570476 0.10111143 0.82300001
-0.086791433 0.10086571 0.82100004
-0.085435241 0.10111143 0.82300001
-0.083867624 0.10111143 0.82300001
-0.082100004 0.10086571 0.82100004
-0.080536194 0.10086571 0.82100004
-0.078972384 0.10086571 0.82100004
-0.077408575 0.10086571 0.82100004
-0.075844765 0.10086571 0.82100004
-0.074280955 0.10086571 0.82100004
-0.072540008 0.10062001 0.81900007
-0.070980005 0.10062001 0.81900007
-0.069420002 0.10062001 0.81900007
-0.067860007 0.10062001 0.81900007
-0.066300005 0.10062001 0.81900007
-0.064740002 0.10062001 0.81900007
-0.063180007 0.10062001 0.81900007
-0.061620004 0.10062001 0.81900007
-0.06020667 0.10086571 0.82100004
-0.058500003 0.10062001 0.81900007
-0.056940004 0.10062001 0.81900007
-0.055380005 0.10062001 0.81900007
-0.053820003 0.10062001 0.81900007
-0.052387621 0.10086571 0.82100004
-0.050700005 0.10062001 0.81900007
-0.04902 0.10037429 0.81700003
-0.047463812 0.10037429 0.81700003
-0.04590762 0.10037429 0.81700003
-0.044351429 0.10037429 0.81700003
-0.042690478 0.10012858 0.81500006
-0.041239049 0.10037429 0.81700003
-0.039682858 0.10037429 0.81700003
-0.038126666 0.10037429 0.81700003
-0.036660004 0.10062001 0.81900007
-0.035100002 0.10062001 0.81900007
-0.017340001 0.10651714 0.86700004
-0.11746 0.10467524 0.83900005
-0.11586191 0.10467524 0.83900005
-0.11426381 0.10467524 0.83900005
-0.11239714 0.10442571 0.83700001
-0.11080286 0.10442571 0.83700001
-0.10920857 0.10442571 0.83700001
-0.10735714 0.10417619 0.83500004
-0.10551334 0.10392667 0.83300006
-0.10392667 0.10392667 0.83300006
-0.10234001 0.10392667 0.83300006
-0.10026953 0.10342763 0.82900006
-0.09869048 0.10342763 0.82900006
-0.097111441 0.10342763 0.82900006
-0.095301904 0.1031781 0.82700002
-0.093726665 0.1031781 0.82700002
-0.091928579 0.10292857 0.82500005
-0.090357147 0.10292857 0.82500005
-0.088570476 0.10267905 0.82300001
-0.086791433 0.10242952 0.82100004
-0.085227624 0.10242952 0.82100004
-0.083867624 0.10267905 0.82300001
-0.082100004 0.10242952 0.82100004
-0.080732383 0.10267905 0.82300001
-0.079164766 0.10267905 0.82300001
-0.077597149 0.10267905 0.82300001
-0.076029524 0.10267905 0.82300001
-0.074280955 0.10242952 0.82100004
-0.072717145 0.10242952 0.82100004
-0.070980005 0.10218 0.81900007
-0.069420002 0.10218 0.81900007
-0.067860007 0.10218 0.81900007
-0.066300005 0.10218 0.81900007
-0.064740002 0.10218 0.81900007
-0.063180007 0.10218 0.81900007
-0.061620004 0.10218 0.81900007
-0.06020667 0.10242952 0.82100004
-0.058500003 0.10218 0.81900007
-0.057079051 0.10242952 0.82100004
-0.055380005 0.10218 0.81900007
-0.053951431 0.10242952 0.82100004
-0.052387621 0.10242952 0.82100004
-0.050700005 0.10218 0.81900007
-0.049140003 0.10218 0.81900007
-0.047580004 0.10218 0.81900007
-0.04590762 0.10193048 0.81700003
-0.044351429 0.10193048 0.81700003
-0.042795237 0.10193048 0.81700003
-0.041239049 0.10193048 0.81700003
-0.039585717 0.10168096 0.81500006
-0.038126666 0.10193048 0.81700003
-0.036570478 0.10193048 0.81700003
-0.035100002 0.10218 0.81900007
-0.033621907 0.10242952 0.82100004
-0.018947622 0.10791906 0.86500007
-0.0173 0.10791906 0.86500007
-0.12123144 0.10678001 0.84300005
-0.11934191 0.10652667 0.84100002
-0.11746 0.10627334 0.83900005
-0.11586191 0.10627334 0.83900005
-0.11426381 0.10627334 0.83900005
-0.11239714 0.10602 0.83700001
-0.11080286 0.10602 0.83700001
-0.10920857 0.10602 0.83700001
-0.10735714 0.10576668 0.83500004
-0.10576668 0.10576668 0.83500004
-0.10392667 0.10551334 0.83300006
-0.10234001 0.10551334 0.83300006
-0.10051143 0.10526 0.83100003
-0.09869048 0.10500667 0.82900006
-0.097111441 0.10500667 0.82900006
-0.095532387 0.10500667 0.82900006
-0.093726665 0.10475334 0.82700002
-0.092151433 0.10475334 0.82700002
-0.090357147 0.1045 0.82500005
-0.088785723 0.1045 0.82500005
-0.087214291 0.1045 0.82500005
-0.085642859 0.1045 0.82500005
-0.084071428 0.1045 0.82500005
-0.0823 0.10424667 0.82300001
-0.080732383 0.10424667 0.82300001
-0.079164766 0.10424667 0.82300001
-0.077597149 0.10424667 0.82300001
-0.076029524 0.10424667 0.82300001
-0.074280955 0.10399334 0.82100004
-0.072540008 0.10374001 0.81900007
-0.070806667 0.10348667 0.81700003
-0.069250479 0.10348667 0.81700003
-0.067694284 0.10348667 0.81700003
-0.066300005 0.10374001 0.81900007
-0.064581908 0.10348667 0.81700003
-0.063025713 0.10348667 0.81700003
-0.061620004 0.10374001 0.81900007
-0.060060002 0.10374001 0.81900007
-0.058500003 0.10374001 0.81900007
-0.056940004 0.10374001 0.81900007
-0.055380005 0.10374001 0.81900007
-0.053951431 0.10399334 0.82100004
-0.052387621 0.10399334 0.82100004
-0.050700005 0.10374001 0.81900007
-0.04902 0.10348667 0.81700003
-0.047580004 0.10374001 0.81900007
-0.04590762 0.10348667 0.81700003
-0.044351429 0.10348667 0.81700003
-0.042795237 0.10348667 0.81700003
-0.041239049 0.10348667 0.81700003
-0.039682858 0.10348667 0.81700003
-0.038220003 0.10374001 0.81900007
-0.036660004 0.10374001 0.81900007
-0.035185717 0.10399334 0.82100004
-0.033621907 0.10399334 0.82100004
-0.032058097 0.10399334 0.82100004
-0.018991429 0.10982 0.86700004
-0.017340001 0.10982 0.86700004
-0.12123144 0.10838572 0.84300005
-0.11934191 0.10812858 0.84100002
-0.11746 0.10787144 0.83900005
-0.11586191 0.10787144 0.83900005
-0.11426381 0.10787144 0.83900005
-0.11239714 0.10761429 0.83700001
-0.11080286 0.10761429 0.83700001
-0.10894762 0.10735714 0.83500004
-0.10735714 0.10735714 0.83500004
-0.10551334 0.10710001 0.83300006
-0.10392667 0.10710001 0.83300006
-0.10209429 0.10684286 0.83100003
-0.10026953 0.10658572 0.82900006
-0.09869048 0.10658572 0.82900006
-0.097111441 0.10658572 0.82900006
-0.095532387 0.10658572 0.82900006
-0.093726665 0.10632858 0.82700002
-0.092151433 0.10632858 0.82700002
-0.090576194 0.10632858 0.82700002
-0.088785723 0.10607143 0.82500005
-0.087002859 0.10581429 0.82300001
-0.085850477 0.10632858 0.82700002
-0.084071428 0.10607143 0.82500005
-0.0823 0.10581429 0.82300001
-0.080732383 0.10581429 0.82300001
-0.079164766 0.10581429 0.82300001
-0.077597149 0.10581429 0.82300001
-0.076029524 0.10581429 0.82300001
-0.074280955 0.10555715 0.82100004
-0.072540008 0.10530001 0.81900007
-0.070806667 0.10504286 0.81700003
-0.069250479 0.10504286 0.81700003
-0.067694284 0.10504286 0.81700003
-0.066138096 0.10504286 0.81700003
-0.064581908 0.10504286 0.81700003
-0.063025713 0.10504286 0.81700003
-0.061469521 0.10504286 0.81700003
-0.060060002 0.10530001 0.81900007
-0.058357142 0.10504286 0.81700003
-0.056940004 0.10530001 0.81900007
-0.055244766 0.10504286 0.81700003
-0.053820003 0.10530001 0.81900007
-0.052260004 0.10530001 0.81900007
-0.050700005 0.10530001 0.81900007
-0.04902 0.10504286 0.81700003
-0.047580004 0.10530001 0.81900007
-0.04590762 0.10504286 0.81700003
-0.044351429 0.10504286 0.81700003
-0.042795237 0.10504286 0.81700003
-0.041239049 0.10504286 0.81700003
-0.039682858 0.10504286 0.81700003
-0.038126666 0.10504286 0.81700003
-0.036660004 0.10530001 0.81900007
-0.035100002 0.10530001 0.81900007
-0.033621907 0.10555715 0.82100004
-0.032058097 0.10555715 0.82100004
-0.030494286 0.10555715 0.82100004
-0.017680001 0.11365715 0.88400006
-0.12123144 0.10999143 0.84300005
-0.11934191 0.10973047 0.84100002
-0.11746 0.10946953 0.83900005
-0.11586191 0.10946953 0.83900005
-0.11426381 0.10946953 0.83900005
-0.11239714 0.10920857 0.83700001
-0.11080286 0.10920857 0.83700001
-0.10920857 0.10920857 0.83700001
-0.10735714 0.10894762 0.83500004
-0.10576668 0.10894762 0.83500004
-0.10392667 0.10868668 0.83300006
-0.10234001 0.10868668 0.83300006
-0.10026953 0.10816476 0.82900006
-0.09869048 0.10816476 0.82900006
-0.097111441 0.10816476 0.82900006
-0.095301904 0.10790381 0.82700002
-0.093726665 0.10790381 0.82700002
-0.091705717 0.1073819 0.82300001
-0.090357147 0.10764287 0.82500005
-0.088785723 0.10764287 0.82500005
-0.087002859 0.1073819 0.82300001
-0.085642859 0.10764287 0.82500005
-0.084071428 0.10764287 0.82500005
-0.0823 0.1073819 0.82300001
-0.080732383 0.1073819 0.82300001
-0.079164766 0.1073819 0.82300001
-0.077597149 0.1073819 0.82300001
-0.076029524 0.1073819 0.82300001
-0.074280955 0.10712095 0.82100004
-0.072540008 0.10686001 0.81900007
-0.070980005 0.10686001 0.81900007
-0.069420002 0.10686001 0.81900007
-0.067694284 0.10659905 0.81700003
-0.066138096 0.10659905 0.81700003
-0.064581908 0.10659905 0.81700003
-0.062871434 0.1063381 0.81500006
-0.061469521 0.10659905 0.81700003
-0.059913337 0.10659905 0.81700003
-0.058357142 0.10659905 0.81700003
-0.056800954 0.10659905 0.81700003
-0.055109527 0.1063381 0.81500006
-0.053688571 0.10659905 0.81700003
-0.052260004 0.10686001 0.81900007
-0.050700005 0.10686001 0.81900007
-0.04902 0.10659905 0.81700003
-0.047580004 0.10686001 0.81900007
-0.046020001 0.10686001 0.81900007
-0.044460002 0.10686001 0.81900007
-0.042795237 0.10659905 0.81700003
-0.041340005 0.10686001 0.81900007
-0.039780006 0.10686001 0.81900007
-0.038220003 0.10686001 0.81900007
-0.036660004 0.10686001 0.81900007
-0.035100002 0.10686001 0.81900007
-0.033621907 0.10712095 0.82100004
-0.03198 0.10686001 0.81900007
-0.030494286 0.10712095 0.82100004
-0.0076971436 0.11716763 0.89800006
-0.0059866668 0.11716763 0.89800006
-0.12123144 0.11159715 0.84300005
-0.11934191 0.11133238 0.84100002
-0.11746 0.11106763 0.83900005
-0.11586191 0.11106763 0.83900005
-0.11426381 0.11106763 0.83900005
-0.11239714 0.11080286 0.83700001
-0.11080286 0.11080286 0.83700001
-0.10920857 0.11080286 0.83700001
-0.10735714 0.1105381 0.83500004
-0.10576668 0.1105381 0.83500004
-0.10392667 0.11027334 0.83300006
-0.10234001 0.11027334 0.83300006
-0.10026953 0.10974382 0.82900006
-0.09869048 0.10974382 0.82900006
-0.097111441 0.10974382 0.82900006
-0.095301904 0.10947905 0.82700002
-0.093726665 0.10947905 0.82700002
-0.091705717 0.10894953 0.82300001
-0.0901381 0.10894953 0.82300001
-0.088570476 0.10894953 0.82300001
-0.086791433 0.10868476 0.82100004
-0.085642859 0.10921429 0.82500005
-0.084071428 0.10921429 0.82500005
-0.0823 0.10894953 0.82300001
-0.080732383 0.10894953 0.82300001
-0.079357147 0.10921429 0.82500005
-0.077597149 0.10894953 0.82300001
-0.076029524 0.10894953 0.82300001
-0.074280955 0.10868476 0.82100004
-0.072717145 0.10868476 0.82100004
-0.070980005 0.10842001 0.81900007
-0.069250479 0.10815524 0.81700003
-0.067860007 0.10842001 0.81900007
-0.066138096 0.10815524 0.81700003
-0.064581908 0.10815524 0.81700003
-0.062871434 0.10789049 0.81500006
-0.061469521 0.10815524 0.81700003
-0.059913337 0.10815524 0.81700003
-0.058357142 0.10815524 0.81700003
-0.056800954 0.10815524 0.81700003
-0.055109527 0.10789049 0.81500006
-0.053688571 0.10815524 0.81700003
-0.052132383 0.10815524 0.81700003
-0.050700005 0.10842001 0.81900007
-0.04902 0.10815524 0.81700003
-0.047580004 0.10842001 0.81900007
-0.046020001 0.10842001 0.81900007
-0.044460002 0.10842001 0.81900007
-0.042795237 0.10815524 0.81700003
-0.041239049 0.10815524 0.81700003
-0.039682858 0.10815524 0.81700003
-0.038126666 0.10815524 0.81700003
-0.036660004 0.10842001 0.81900007
-0.035185717 0.10868476 0.82100004
-0.03198 0.10842001 0.81900007
-0.12312857 0.11347143 0.84500003
-0.12151904 0.11347143 0.84500003
-0.11934191 0.11293428 0.84100002
-0.11774001 0.11293428 0.84100002
-0.11586191 0.11266571 0.83900005
-0.11426381 0.11266571 0.83900005
-0.11239714 0.11239714 0.83700001
-0.11080286 0.11239714 0.83700001
-0.10920857 0.11239714 0.83700001
-0.10735714 0.11212858 0.83500004
-0.10551334 0.11186001 0.83300006
-0.10392667 0.11186001 0.83300006
-0.10209429 0.11159144 0.83100003
-0.10026953 0.11132286 0.82900006
-0.09869048 0.11132286 0.82900006
-0.096877143 0.11105429 0.82700002
-0.095301904 0.11105429 0.82700002
-0.093726665 0.11105429 0.82700002
-0.092151433 0.11105429 0.82700002
-0.090576194 0.11105429 0.82700002
-0.088785723 0.11078572 0.82500005
-0.087214291 0.11078572 0.82500005
-0.085642859 0.11078572 0.82500005
-0.084071428 0.11078572 0.82500005
-0.082500003 0.11078572 0.82500005
-0.080732383 0.11051714 0.82300001
-0.079164766 0.11051714 0.82300001
-0.077597149 0.11051714 0.82300001
-0.076029524 0.11051714 0.82300001
-0.074280955 0.11024858 0.82100004
-0.072540008 0.10998001 0.81900007
-0.070980005 0.10998001 0.81900007
-0.069250479 0.10971143 0.81700003
-0.067694284 0.10971143 0.81700003
-0.066138096 0.10971143 0.81700003
-0.064581908 0.10971143 0.81700003
-0.063025713 0.10971143 0.81700003
-0.061469521 0.10971143 0.81700003
-0.059913337 0.10971143 0.81700003
-0.058357142 0.10971143 0.81700003
-0.056800954 0.10971143 0.81700003
-0.055109527 0.10944287 0.81500006
-0.053688571 0.10971143 0.81700003
-0.052132383 0.10971143 0.81700003
-0.050576191 0.10971143 0.81700003
-0.04902 0.10971143 0.81700003
-0.047580004 0.10998001 0.81900007
-0.04590762 0.10971143 0.81700003
-0.044460002 0.10998001 0.81900007
-0.042795237 0.10971143 0.81700003
-0.041239049 0.10971143 0.81700003
-0.039682858 0.10971143 0.81700003
-0.038126666 0.10971143 0.81700003
-0.036570478 0.10971143 0.81700003
-0.035100002 0.10998001 0.81900007
-0.033621907 0.11024858 0.82100004
-0.03198 0.10998001 0.81900007
-0.12312857 0.11508096 0.84500003
-0.12151904 0.11508096 0.84500003
-0.11962572 0.11480858 0.84300005
-0.11774001 0.11453619 0.84100002
-0.11586191 0.11426381 0.83900005
-0.11426381 0.11426381 0.83900005
-0.11239714 0.11399143 0.83700001
-0.11080286 0.11399143 0.83700001
-0.10920857 0.11399143 0.83700001
-0.10735714 0.11371905 0.83500004
-0.10551334 0.11344668 0.83300006
-0.10392667 0.11344668 0.83300006
-0.10209429 0.11317429 0.83100003
-0.10026953 0.11290191 0.82900006
-0.09869048 0.11290191 0.82900006
-0.096877143 0.11262953 0.82700002
-0.095301904 0.11262953 0.82700002
-0.093726665 0.11262953 0.82700002
-0.092151433 0.11262953 0.82700002
-0.090576194 0.11262953 0.82700002
-0.088570476 0.11208476 0.82300001
-0.087002859 0.11208476 0.82300001
-0.085850477 0.11262953 0.82700002
-0.084071428 0.11235715 0.82500005
-0.082500003 0.11235715 0.82500005
-0.080732383 0.11208476 0.82300001
-0.079164766 0.11208476 0.82300001
-0.077408575 0.11181239 0.82100004
-0.075844765 0.11181239 0.82100004
-0.07410001 0.11154001 0.81900007
-0.072540008 0.11154001 0.81900007
-0.070806667 0.11126762 0.81700003
-0.069250479 0.11126762 0.81700003
-0.067694284 0.11126762 0.81700003
-0.066138096 0.11126762 0.81700003
-0.064581908 0.11126762 0.81700003
-0.063025713 0.11126762 0.81700003
-0.061319049 0.11099524 0.81500006
-0.059766669 0.11099524 0.81500006
-0.058214288 0.11099524 0.81500006
-0.056661908 0.11099524 0.81500006
-0.055109527 0.11099524 0.81500006
-0.053688571 0.11126762 0.81700003
-0.052132383 0.11126762 0.81700003
-0.050700005 0.11154001 0.81900007
-0.04902 0.11126762 0.81700003
-0.047580004 0.11154001 0.81900007
-0.046020001 0.11154001 0.81900007
-0.044460002 0.11154001 0.81900007
-0.042795237 0.11126762 0.81700003
-0.041239049 0.11126762 0.81700003
-0.039585717 0.11099524 0.81500006
-0.038033333 0.11099524 0.81500006
-0.036570478 0.11126762 0.81700003
-0.035014287 0.11126762 0.81700003
-0.033540003 0.11154001 0.81900007
-0.12151904 0.11669048 0.84500003
-0.11962572 0.11641429 0.84300005
-0.11774001 0.11613809 0.84100002
-0.11586191 0.11586191 0.83900005
-0.11426381 0.11586191 0.83900005
-0.11239714 0.11558571 0.83700001
-0.11080286 0.11558571 0.83700001
-0.10920857 0.11558571 0.83700001
-0.10735714 0.11530953 0.83500004
-0.10551334 0.11503334 0.83300006
-0.10367715 0.11475714 0.83100003
-0.10209429 0.11475714 0.83100003
-0.10026953 0.11448096 0.82900006
-0.098452382 0.11420476 0.82700002
-0.096877143 0.11420476 0.82700002
-0.095071435 0.11392858 0.82500005
-0.093500003 0.11392858 0.82500005
-0.091928579 0.11392858 0.82500005
-0.090576194 0.11420476 0.82700002
-0.088785723 0.11392858 0.82500005
-0.087214291 0.11392858 0.82500005
-0.085642859 0.11392858 0.82500005
-0.084071428 0.11392858 0.82500005
-0.0823 0.11365238 0.82300001
-0.080732383 0.11365238 0.82300001
-0.079164766 0.11365238 0.82300001
-0.077220008 0.11310001 0.81900007
-0.075660005 0.11310001 0.81900007
-0.07410001 0.11310001 0.81900007
-0.072362863 0.11282381 0.81700003
-0.070806667 0.11282381 0.81700003
-0.069250479 0.11282381 0.81700003
-0.067694284 0.11282381 0.81700003
-0.065976188 0.11254763 0.81500006
-0.064581908 0.11282381 0.81700003
-0.062871434 0.11254763 0.81500006
-0.061319049 0.11254763 0.81500006
-0.059766669 0.11254763 0.81500006
-0.058214288 0.11254763 0.81500006
-0.056661908 0.11254763 0.81500006
-0.055109527 0.11254763 0.81500006
-0.053557146 0.11254763 0.81500006
-0.052132383 0.11282381 0.81700003
-0.050576191 0.11282381 0.81700003
-0.04902 0.11282381 0.81700003
-0.047463812 0.11282381 0.81700003
-0.046020001 0.11310001 0.81900007
-0.044460002 0.11310001 0.81900007
-0.042795237 0.11282381 0.81700003
-0.038033333 0.11254763 0.81500006
-0.036480956 0.11254763 0.81500006
-0.035014287 0.11282381 0.81700003
-0.033458095 0.11282381 0.81700003
-0.12123144 0.11802001 0.84300005
-0.11934191 0.11774001 0.84100002
-0.11746 0.11746 0.83900005
-0.11586191 0.11746 0.83900005
-0.11426381 0.11746 0.83900005
-0.11239714 0.11718 0.83700001
-0.11080286 0.11718 0.83700001
-0.10920857 0.11718 0.83700001
-0.10735714 0.1169 0.83500004
-0.10551334 0.11662001 0.83300006
-0.10367715 0.11634 0.83100003
-0.10209429 0.11634 0.83100003
-0.10026953 0.11606 0.82900006
-0.098452382 0.11578 0.82700002
-0.096642859 0.11550001 0.82500005
-0.095071435 0.11550001 0.82500005
-0.093500003 0.11550001 0.82500005
-0.091928579 0.11550001 0.82500005
-0.090357147 0.11550001 0.82500005
-0.088785723 0.11550001 0.82500005
-0.087214291 0.11550001 0.82500005
-0.085435241 0.11522 0.82300001
-0.083867624 0.11522 0.82300001
-0.0823 0.11522 0.82300001
-0.080732383 0.11522 0.82300001
-0.078972384 0.11494 0.82100004
-0.077220008 0.11466001 0.81900007
-0.075660005 0.11466001 0.81900007
-0.07410001 0.11466001 0.81900007
-0.072540008 0.11466001 0.81900007
-0.070806667 0.11438 0.81700003
-0.069250479 0.11438 0.81700003
-0.067694284 0.11438 0.81700003
-0.065976188 0.11410001 0.81500006
-0.064423814 0.11410001 0.81500006
-0.062871434 0.11410001 0.81500006
-0.061319049 0.11410001 0.81500006
-0.059766669 0.11410001 0.81500006
-0.058214288 0.11410001 0.81500006
-0.056661908 0.11410001 0.81500006
-0.055109527 0.11410001 0.81500006
-0.053557146 0.11410001 0.81500006
-0.052004766 0.11410001 0.81500006
-0.050576191 0.11438 0.81700003
-0.04902 0.11438 0.81700003
-0.047463812 0.11438 0.81700003
-0.04590762 0.11438 0.81700003
-0.044351429 0.11438 0.81700003
-0.039585717 0.11410001 0.81500006
-0.038033333 0.11410001 0.81500006
-0.036480956 0.11410001 0.81500006
-0.034928575 0.11410001 0.81500006
-0.033376191 0.11410001 0.81500006
-0.03182381 0.11410001 0.81500006
-0.023420952 0.11872 0.84800005
-0.021805717 0.11872 0.84800005
-0.12094381 0.11934191 0.84100002
-0.1190581 0.1190581 0.83900005
-0.11746 0.1190581 0.83900005
-0.11586191 0.1190581 0.83900005
-0.11399143 0.11877429 0.83700001
-0.11239714 0.11877429 0.83700001
-0.11080286 0.11877429 0.83700001
-0.10894762 0.11849048 0.83500004
-0.10735714 0.11849048 0.83500004
-0.10551334 0.11820668 0.83300006
-0.10367715 0.11792286 0.83100003
-0.10184858 0.11763906 0.82900006
-0.10002762 0.11735523 0.82700002
-0.098452382 0.11735523 0.82700002
-0.096642859 0.11707143 0.82500005
-0.095071435 0.11707143 0.82500005
-0.093500003 0.11707143 0.82500005
-0.091928579 0.11707143 0.82500005
-0.090357147 0.11707143 0.82500005
-0.088785723 0.11707143 0.82500005
-0.087002859 0.11678762 0.82300001
-0.085435241 0.11678762 0.82300001
-0.083867624 0.11678762 0.82300001
-0.0823 0.11678762 0.82300001
-0.080536194 0.11650381 0.82100004
-0.078972384 0.11650381 0.82100004
-0.077220008 0.11622001 0.81900007
-0.075660005 0.11622001 0.81900007
-0.07410001 0.11622001 0.81900007
-0.072540008 0.11622001 0.81900007
-0.070806667 0.11593619 0.81700003
-0.069250479 0.11593619 0.81700003
-0.067694284 0.11593619 0.81700003
-0.065976188 0.11565238 0.81500006
-0.064423814 0.11565238 0.81500006
-0.062871434 0.11565238 0.81500006
-0.061319049 0.11565238 0.81500006
-0.059766669 0.11565238 0.81500006
-0.058214288 0.11565238 0.81500006
-0.056661908 0.11565238 0.81500006
-0.055109527 0.11565238 0.81500006
-0.053557146 0.11565238 0.81500006
-0.052004766 0.11565238 0.81500006
-0.050452381 0.11565238 0.81500006
-0.048900004 0.11565238 0.81500006
-0.047347624 0.11565238 0.81500006
-0.04579524 0.11565238 0.81500006
-0.039537143 0.11551048 0.81400001
-0.037986666 0.11551048 0.81400001
-0.036436189 0.11551048 0.81400001
-0.034885716 0.11551048 0.81400001
-0.033376191 0.11565238 0.81500006
-0.03182381 0.11565238 0.81500006
-0.026651429 0.12033524 0.84800005
-0.025036192 0.12033524 0.84800005
-0.023420952 0.12033524 0.84800005
-0.021908572 0.12090286 0.85200006
-0.020285714 0.12090286 0.85200006
-0.12123144 0.12123144 0.84300005
-0.1190581 0.1206562 0.83900005
-0.11746 0.1206562 0.83900005
-0.11586191 0.1206562 0.83900005
-0.11399143 0.12036857 0.83700001
-0.11239714 0.12036857 0.83700001
-0.11080286 0.12036857 0.83700001
-0.10894762 0.12008096 0.83500004
-0.10710001 0.11979334 0.83300006
-0.10551334 0.11979334 0.83300006
-0.10342763 0.1192181 0.82900006
-0.10184858 0.1192181 0.82900006
-0.10002762 0.11893048 0.82700002
-0.098214291 0.11864286 0.82500005
-0.096642859 0.11864286 0.82500005
-0.095071435 0.11864286 0.82500005
-0.093500003 0.11864286 0.82500005
-0.091928579 0.11864286 0.82500005
-0.090357147 0.11864286 0.82500005
-0.088570476 0.11835524 0.82300001
-0.087002859 0.11835524 0.82300001
-0.085435241 0.11835524 0.82300001
-0.083663814 0.11806762 0.82100004
-0.082100004 0.11806762 0.82100004
-0.080536194 0.11806762 0.82100004
-0.07878001 0.11778001 0.81900007
-0.077031434 0.11749239 0.81700003
-0.075475238 0.11749239 0.81700003
-0.07391905 0.11749239 0.81700003
-0.072185718 0.11720477 0.81500006
-0.070633344 0.11720477 0.81500006
-0.069080956 0.11720477 0.81500006
-0.067528576 0.11720477 0.81500006
-0.065976188 0.11720477 0.81500006
-0.064423814 0.11720477 0.81500006
-0.062871434 0.11720477 0.81500006
-0.061319049 0.11720477 0.81500006
-0.059766669 0.11720477 0.81500006
-0.058214288 0.11720477 0.81500006
-0.056661908 0.11720477 0.81500006
-0.055109527 0.11720477 0.81500006
-0.053557146 0.11720477 0.81500006
-0.052004766 0.11720477 0.81500006
-0.050452381 0.11720477 0.81500006
-0.048900004 0.11720477 0.81500006
-0.047347624 0.11720477 0.81500006
-0.04579524 0.11720477 0.81500006
-0.04418857 0.11706095 0.81400001
-0.042638097 0.11706095 0.81400001
-0.039440002 0.11677334 0.81200004
-0.037893336 0.11677334 0.81200004
-0.036346667 0.11677334 0.81200004
-0.0348 0.11677334 0.81200004
-0.033335235 0.11706095 0.81400001
-0.03182381 0.11720477 0.81500006
-0.026651429 0.12195048 0.84800005
-0.025036192 0.12195048 0.84800005
-0.023420952 0.12195048 0.84800005
-0.021805717 0.12195048 0.84800005
-0.020238096 0.1222381 0.85000002
-0.018619049 0.1222381 0.85000002
-0.12094381 0.12254572 0.84100002
-0.1190581 0.12225429 0.83900005
-0.11746 0.12225429 0.83900005
-0.11586191 0.12225429 0.83900005
-0.11399143 0.12196286 0.83700001
-0.11239714 0.12196286 0.83700001
-0.1105381 0.12167143 0.83500004
-0.10894762 0.12167143 0.83500004
-0.10710001 0.12138001 0.83300006
-0.10526 0.12108857 0.83100003
-0.10342763 0.12079715 0.82900006
-0.10184858 0.12079715 0.82900006
-0.10002762 0.12050572 0.82700002
-0.098214291 0.12021429 0.82500005
-0.096642859 0.12021429 0.82500005
-0.094840951 0.11992285 0.82300001
-0.093273334 0.11992285 0.82300001
-0.091705717 0.11992285 0.82300001
-0.0901381 0.11992285 0.82300001
-0.088570476 0.11992285 0.82300001
-0.087002859 0.11992285 0.82300001
-0.085435241 0.11992285 0.82300001
-0.083663814 0.11963143 0.82100004
-0.081900008 0.11934 0.81900007
-0.080143809 0.11904858 0.81700003
-0.078587621 0.11904858 0.81700003
-0.077031434 0.11904858 0.81700003
-0.075475238 0.11904858 0.81700003
-0.073738098 0.11875715 0.81500006
-0.072185718 0.11875715 0.81500006
-0.070633344 0.11875715 0.81500006
-0.069080956 0.11875715 0.81500006
-0.067528576 0.11875715 0.81500006
-0.065976188 0.11875715 0.81500006
-0.064423814 0.11875715 0.81500006
-0.062794283 0.11861143 0.81400001
-0.06124381 0.11861143 0.81400001
-0.059693333 0.11861143 0.81400001
-0.058142856 0.11861143 0.81400001
-0.056661908 0.11875715 0.81500006
-0.055109527 0.11875715 0.81500006
-0.053557146 0.11875715 0.81500006
-0.052004766 0.11875715 0.81500006
-0.050452381 0.11875715 0.81500006
-0.048900004 0.11875715 0.81500006
-0.047347624 0.11875715 0.81500006
-0.04579524 0.11875715 0.81500006
-0.04418857 0.11861143 0.81400001
-0.042638097 0.11861143 0.81400001
-0.040986668 0.11832 0.81200004
-0.039440002 0.11832 0.81200004
-0.037893336 0.11832 0.81200004
-0.036346667 0.11832 0.81200004
-0.0348 0.11832 0.81200004
-0.033335235 0.11861143 0.81400001
-0.031784762 0.11861143 0.81400001
-0.028266668 0.12356572 0.84800005
-0.026651429 0.12356572 0.84800005
-0.025036192 0.12356572 0.84800005
-0.023420952 0.12356572 0.84800005
-0.021857142 0.12385715 0.85000002
-0.020238096 0.12385715 0.85000002
-0.018750478 0.12473144 0.85600007
-0.1190581 0.12385239 0.83900005
-0.11746 0.12385239 0.83900005
-0.11558571 0.12355714 0.83700001
-0.11399143 0.12355714 0.83700001
-0.11212858 0.12326191 0.83500004
-0.11027334 0.12296667 0.83300006
-0.10868668 0.12296667 0.83300006
-0.10684286 0.12267143 0.83100003
-0.10500667 0.1223762 0.82900006
-0.10342763 0.1223762 0.82900006
-0.10160286 0.12208095 0.82700002
-0.099785723 0.12178572 0.82500005
-0.097976193 0.12149048 0.82300001
-0.096408576 0.12149048 0.82300001
-0.094840951 0.12149048 0.82300001
-0.093273334 0.12149048 0.82300001
-0.091705717 0.12149048 0.82300001
-0.0901381 0.12149048 0.82300001
-0.088570476 0.12149048 0.82300001
-0.087002859 0.12149048 0.82300001
-0.085227624 0.12119524 0.82100004
-0.083663814 0.12119524 0.82100004
-0.081700005 0.12060476 0.81700003
-0.080143809 0.12060476 0.81700003
-0.078587621 0.12060476 0.81700003
-0.077031434 0.12060476 0.81700003
-0.075475238 0.12060476 0.81700003
-0.07391905 0.12060476 0.81700003
-0.072185718 0.12030953 0.81500006
-0.070633344 0.12030953 0.81500006
-0.069080956 0.12030953 0.81500006
-0.067528576 0.12030953 0.81500006
-0.065976188 0.12030953 0.81500006
-0.064423814 0.12030953 0.81500006
-0.062794283 0.1201619 0.81400001
-0.06124381 0.1201619 0.81400001
-0.059693333 0.1201619 0.81400001
-0.058142856 0.1201619 0.81400001
-0.056592382 0.1201619 0.81400001
-0.055041905 0.1201619 0.81400001
-0.053491428 0.1201619 0.81400001
-0.052004766 0.12030953 0.81500006
-0.050452381 0.12030953 0.81500006
-0.048900004 0.12030953 0.81500006
-0.047347624 0.12030953 0.81500006
-0.045739047 0.1201619 0.81400001
-0.04418857 0.1201619 0.81400001
-0.042638097 0.1201619 0.81400001
-0.040986668 0.11986668 0.81200004
-0.039440002 0.11986668 0.81200004
-0.037893336 0.11986668 0.81200004
-0.036257144 0.11957144 0.81000006
-0.0348 0.11986668 0.81200004
-0.033335235 0.1201619 0.81400001
-0.031784762 0.1201619 0.81400001
-0.028266668 0.12518096 0.84800005
-0.026651429 0.12518096 0.84800005
-0.025036192 0.12518096 0.84800005
-0.023420952 0.12518096 0.84800005
-0.021805717 0.12518096 0.84800005
-0.020238096 0.1254762 0.85000002
-0.018619049 0.1254762 0.85000002
-0.11558571 0.12515143 0.83700001
-0.11399143 0.12515143 0.83700001
-0.11212858 0.12485238 0.83500004
-0.11027334 0.12455334 0.83300006
-0.10868668 0.12455334 0.83300006
-0.10684286 0.12425429 0.83100003
-0.10500667 0.12395525 0.82900006
-0.1031781 0.12365619 0.82700002
-0.10160286 0.12365619 0.82700002
-0.099785723 0.12335715 0.82500005
-0.097976193 0.1230581 0.82300001
-0.096408576 0.1230581 0.82300001
-0.094840951 0.1230581 0.82300001
-0.093273334 0.1230581 0.82300001
-0.091705717 0.1230581 0.82300001
-0.0901381 0.1230581 0.82300001
-0.088355243 0.12275905 0.82100004
-0.086791433 0.12275905 0.82100004
-0.085227624 0.12275905 0.82100004
-0.083663814 0.12275905 0.82100004
-0.081700005 0.12216096 0.81700003
-0.080143809 0.12216096 0.81700003
-0.078587621 0.12216096 0.81700003
-0.077220008 0.12246001 0.81900007
