# .PCD v0.7 - Point Cloud Data file format
VERSION 0.7
FIELDS x y z
SIZE 4 4 4
TYPE F F F
COUNT 1 1 1
WIDTH 1407
HEIGHT 1
VIEWPOINT 0 0 0 1 0 0 0
POINTS 1407
DATA ascii
0.09746857 0.088687621 0.92200005
0.099224769 0.088687621 0.92200005
0.10098096 0.088687621 0.92200005
0.10307144 0.088976197 0.92500007
0.10449333 0.088687621 0.92200005
0.10659525 0.088976197 0.92500007
0.10800572 0.088687621 0.92200005
0.10976191 0.088687621 0.92200005
0.11127619 0.088495232 0.92000002
0.11302857 0.088495232 0.92000002
0.11478096 0.088495232 0.92000002
0.11653333 0.088495232 0.92000002
0.11828572 0.088495232 0.92000002
0.12003809 0.088495232 0.92000002
0.12205524 0.088687621 0.92200005
0.12354286 0.088495232 0.92000002
0.12529524 0.088495232 0.92000002
0.12732381 0.088687621 0.92200005
0.1288 0.088495232 0.92000002
0.13055238 0.088495232 0.92000002
0.13230476 0.088495232 0.92000002
0.13405715 0.088495232 0.92000002
0.13580953 0.088495232 0.92000002
0.1375619 0.088495232 0.92000002
0.13931428 0.088495232 0.92000002
0.14106666 0.088495232 0.92000002
0.14312953 0.088687621 0.92200005
0.14535716 0.088976197 0.92500007
0.14711905 0.088976197 0.92500007
0.14888096 0.088976197 0.92500007
0.15064287 0.088976197 0.92500007
0.15273428 0.089168578 0.92700005
0.15450001 0.089168578 0.92700005
0.15626572 0.089168578 0.92700005
0.15803143 0.089168578 0.92700005
0.15979715 0.089168578 0.92700005
0.16156286 0.089168578 0.92700005
0.16385716 0.089457147 0.93000007
0.16562858 0.089457147 0.93000007
0.16740002 0.089457147 0.93000007
0.16917145 0.089457147 0.93000007
0.17131048 0.089649528 0.93200004
0.17364287 0.089938097 0.93500006
0.17542382 0.089938097 0.93500006
0.17720477 0.089938097 0.93500006
0.17936857 0.090130478 0.93700004
0.18115334 0.090130478 0.93700004
0.1829381 0.090130478 0.93700004
0.1853143 0.090419047 0.94000006
0.18710476 0.090419047 0.94000006
0.18929715 0.090611435 0.94200003
0.19109143 0.090611435 0.94200003
0.19350001 0.090900004 0.94500005
0.19530001 0.090900004 0.94500005
0.19814286 0.091380954 0.95000005
0.20058383 0.09166953 0.95300007
0.20239906 0.09166953 0.95300007
0.20464286 0.091861904 0.95500004
0.20711049 0.09215048 0.95800006
0.20893526 0.09215048 0.95800006
0.21142001 0.092439048 0.96100003
0.21325049 0.092439048 0.96100003
0.21508096 0.092439048 0.96100003
0.21691144 0.092439048 0.96100003
-0.30530572 0.082105711 0.83700001
-0.30298573 0.08190953 0.83500004
-0.30139527 0.08190953 0.83500004
-0.29908669 0.081713334 0.83300006
-0.29750001 0.081713334 0.83300006
-0.29520285 0.081517145 0.83100003
-0.29362002 0.081517145 0.83100003
-0.29203716 0.081517145 0.83100003
-0.28975525 0.081320956 0.82900006
-0.28817621 0.081320956 0.82900006
-0.28659716 0.081320956 0.82900006
-0.28501812 0.081320956 0.82900006
-0.28343907 0.081320956 0.82900006
-0.28118002 0.08112476 0.82700002
-0.27892861 0.080928579 0.82500005
-0.27668476 0.080732383 0.82300001
-0.27511716 0.080732383 0.82300001
-0.2735495 0.080732383 0.82300001
-0.27132097 0.080536194 0.82100004
-0.26910001 0.080340005 0.81900007
-0.26754001 0.080340005 0.81900007
-0.26533049 0.080143809 0.81700003
-0.26377431 0.080143809 0.81700003
-0.26221809 0.080143809 0.81700003
-0.26002383 0.079947628 0.81500006
-0.25847146 0.079947628 0.81500006
-0.25660381 0.079849526 0.81400001
-0.25505334 0.079849526 0.81400001
-0.25350288 0.079849526 0.81400001
-0.25133336 0.079653338 0.81200004
-0.24917144 0.079457149 0.81000006
-0.24701715 0.07926096 0.80800003
-0.24547811 0.07926096 0.80800003
-0.24333525 0.079064764 0.80600005
-0.24180001 0.079064764 0.80600005
-0.24026477 0.079064764 0.80600005
-0.23813714 0.078868575 0.80400002
-0.23601715 0.078672379 0.80200005
-0.23390476 0.078476191 0.80000001
-0.23238096 0.078476191 0.80000001
-0.23085715 0.078476191 0.80000001
-0.22933334 0.078476191 0.80000001
-0.22780952 0.078476191 0.80000001
-0.22572 0.078280002 0.79800004
-0.2247619 0.078476191 0.80000001
-0.2232381 0.078476191 0.80000001
-0.22171429 0.078476191 0.80000001
-0.22019047 0.078476191 0.80000001
-0.21921334 0.078672379 0.80200005
-0.21822856 0.078868575 0.80400002
-0.21777524 0.07926096 0.80800003
-0.21677144 0.079457149 0.81000006
-0.21576001 0.079653338 0.81200004
-0.21421334 0.079653338 0.81200004
-0.21319048 0.079849526 0.81400001
-0.21164 0.079849526 0.81400001
-0.21034764 0.079947628 0.81500006
-0.20879525 0.079947628 0.81500006
-0.20826001 0.080340005 0.81900007
-0.2082143 0.080928579 0.82500005
-0.20714381 0.08112476 0.82700002
-0.20606573 0.081320956 0.82900006
-0.20498 0.081517145 0.83100003
-0.20388667 0.081713334 0.83300006
-0.20327142 0.082105711 0.83700001
-0.20215906 0.082301915 0.83900005
-0.20103905 0.082498096 0.84100002
-0.19943716 0.082498096 0.84100002
-0.1987762 0.082890481 0.84500003
-0.19716667 0.082890481 0.84500003
-0.19625144 0.083184764 0.84800005
-0.19509524 0.083380952 0.85000002
-0.19438666 0.083773337 0.85400003
-0.19321144 0.083969526 0.85600007
-0.19292381 0.0845581 0.86200005
-0.19128191 0.0845581 0.86200005
-0.19030002 0.08485239 0.86500007
-0.18908858 0.085048571 0.86700004
-0.18743715 0.085048571 0.86700004
-0.18707143 0.085637145 0.87300003
-0.18647048 0.086127624 0.87800002
-0.18479811 0.086127624 0.87800002
-0.18354288 0.086323813 0.88000005
-0.18228 0.086520001 0.88200003
-0.1806 0.086520001 0.88200003
-0.17932571 0.086716197 0.88400006
-0.17824475 0.087010473 0.88700002
-0.17735143 0.087402858 0.89100003
-0.17624572 0.087697148 0.89400005
-0.17454286 0.087697148 0.89400005
-0.17361334 0.088089526 0.89800006
-0.17286 0.088580005 0.90300006
-0.17151904 0.088776194 0.90500003
-0.17035811 0.089070477 0.90800005
-0.16862859 0.089070477 0.90800005
-0.16689906 0.089070477 0.90800005
-0.16607906 0.089560956 0.91300005
-0.16506 0.089953333 0.91700006
-0.16331333 0.089953333 0.91700006
-0.16209523 0.090247624 0.92000002
-0.16069144 0.090443812 0.92200005
-0.15945239 0.090738103 0.92500007
-0.15854287 0.091228582 0.93000007
-0.15795143 0.091915235 0.93700004
-0.15616667 0.091915235 0.93700004
-0.1548762 0.092209533 0.94000006
-0.15341143 0.092405714 0.94200003
-0.15258285 0.092994288 0.94800007
-0.15109524 0.093190484 0.95000005
-0.14975715 0.093484767 0.95300007
-0.1487181 0.093975239 0.95800006
-0.14766002 0.094465718 0.96300006
-0.14628001 0.094760001 0.96600002
-0.14488858 0.095054291 0.96900004
-0.14304286 0.095054291 0.96900004
-0.14163429 0.095348574 0.97200006
-0.13978286 0.095348574 0.97200006
-0.13821524 0.09554477 0.97400004
-0.13762 0.096427619 0.98300004
-0.13574763 0.096427619 0.98300004
-0.13387524 0.096427619 0.98300004
-0.13227144 0.096623816 0.98500007
-0.13039525 0.096623816 0.98500007
-0.12969334 0.097506672 0.99400002
-0.12857142 0.098095238 1
-0.12704667 0.098389529 1.003
-0.12551048 0.098683812 1.006
-0.12384 0.09888 1.008
-0.12192 0.09888 1.008
-0.12035715 0.099174291 1.011
-0.11913429 0.099762864 1.0170001
-0.11754287 0.10005715 1.0200001
-0.11594 0.10035143 1.023
-0.11399143 0.10035143 1.023
-0.11237143 0.10064571 1.026
-0.11041714 0.10064571 1.026
0.032466665 0.09554477 0.97400004
0.034251429 0.095348574 0.97200006
0.03599143 0.095054291 0.96900004
0.037602857 0.094465718 0.96300006
0.039232384 0.093975239 0.95800006
0.041057147 0.093975239 0.95800006
0.04274762 0.093680955 0.95500004
0.044473335 0.093484767 0.95300007
0.046288576 0.093484767 0.95300007
0.047952384 0.093190484 0.95000005
0.049657144 0.092994288 0.94800007
0.051462859 0.092994288 0.94800007
0.053380955 0.093190484 0.95000005
0.055074289 0.092994288 0.94800007
0.056700002 0.092700005 0.94500005
0.058500003 0.092700005 0.94500005
0.060108572 0.092405714 0.94200003
0.06177143 0.092209533 0.94000006
0.063561909 0.092209533 0.94000006
0.06535238 0.092209533 0.94000006
0.066928573 0.091915235 0.93700004
0.068713337 0.091915235 0.93700004
0.070347622 0.091719054 0.93500006
0.071897149 0.091424763 0.93200004
0.073672384 0.091424763 0.93200004
0.075285718 0.091228582 0.93000007
0.077057146 0.091228582 0.93000007
0.078828573 0.091228582 0.93000007
0.080600001 0.091228582 0.93000007
0.082371436 0.091228582 0.93000007
0.084142864 0.091228582 0.93000007
0.085637145 0.090934284 0.92700005
0.087402858 0.090934284 0.92700005
0.089168578 0.090934284 0.92700005
0.090934284 0.090934284 0.92700005
0.092500009 0.090738103 0.92500007
0.094261907 0.090738103 0.92500007
0.096023813 0.090738103 0.92500007
0.09746857 0.090443812 0.92200005
0.099224769 0.090443812 0.92200005
0.10098096 0.090443812 0.92200005
0.10273715 0.090443812 0.92200005
0.10449333 0.090443812 0.92200005
0.10624953 0.090443812 0.92200005
0.10800572 0.090443812 0.92200005
0.10976191 0.090443812 0.92200005
0.11127619 0.090247624 0.92000002
0.11302857 0.090247624 0.92000002
0.11478096 0.090247624 0.92000002
0.11653333 0.090247624 0.92000002
0.11828572 0.090247624 0.92000002
0.12003809 0.090247624 0.92000002
0.12205524 0.090443812 0.92200005
0.12354286 0.090247624 0.92000002
0.12529524 0.090247624 0.92000002
0.12732381 0.090443812 0.92200005
0.1288 0.090247624 0.92000002
0.13055238 0.090247624 0.92000002
0.13230476 0.090247624 0.92000002
0.13405715 0.090247624 0.92000002
0.13580953 0.090247624 0.92000002
0.1375619 0.090247624 0.92000002
0.13931428 0.090247624 0.92000002
0.14106666 0.090247624 0.92000002
0.14281905 0.090247624 0.92000002
0.14488572 0.090443812 0.92200005
0.14664191 0.090443812 0.92200005
0.14888096 0.090738103 0.92500007
0.15064287 0.090738103 0.92500007
0.15273428 0.090934284 0.92700005
0.15450001 0.090934284 0.92700005
0.15626572 0.090934284 0.92700005
0.15803143 0.090934284 0.92700005
0.15979715 0.090934284 0.92700005
0.16156286 0.090934284 0.92700005
0.16385716 0.091228582 0.93000007
0.16562858 0.091228582 0.93000007
0.16740002 0.091228582 0.93000007
0.16953525 0.091424763 0.93200004
0.17131048 0.091424763 0.93200004
0.17364287 0.091719054 0.93500006
0.17542382 0.091719054 0.93500006
0.17758381 0.091915235 0.93700004
0.17936857 0.091915235 0.93700004
0.18115334 0.091915235 0.93700004
0.1829381 0.091915235 0.93700004
0.1853143 0.092209533 0.94000006
0.18710476 0.092209533 0.94000006
0.18929715 0.092405714 0.94200003
0.1917 0.092700005 0.94500005
0.19350001 0.092700005 0.94500005
0.19530001 0.092700005 0.94500005
0.19814286 0.093190484 0.95000005
0.20058383 0.093484767 0.95300007
0.20282382 0.093680955 0.95500004
0.20528573 0.093975239 0.95800006
0.20711049 0.093975239 0.95800006
0.20893526 0.093975239 0.95800006
0.21076001 0.093975239 0.95800006
0.21258478 0.093975239 0.95800006
0.21508096 0.094269522 0.96100003
0.21691144 0.094269522 0.96100003
0.21874191 0.094269522 0.96100003
-0.30616668 0.083500005 0.83500004
-0.30530572 0.083700001 0.83700001
-0.30298573 0.083500005 0.83500004
-0.30139527 0.083500005 0.83500004
-0.29908669 0.083300002 0.83300006
-0.29750001 0.083300002 0.83300006
-0.29520285 0.083100006 0.83100003
-0.29362002 0.083100006 0.83100003
-0.29203716 0.083100006 0.83100003
-0.28975525 0.082900003 0.82900006
-0.28817621 0.082900003 0.82900006
-0.28659716 0.082900003 0.82900006
-0.28501812 0.082900003 0.82900006
-0.28343907 0.082900003 0.82900006
-0.28118002 0.082699999 0.82700002
-0.27892861 0.082500003 0.82500005
-0.27668476 0.0823 0.82300001
-0.27511716 0.0823 0.82300001
-0.2735495 0.0823 0.82300001
-0.27132097 0.082100004 0.82100004
-0.26910001 0.081900008 0.81900007
-0.26754001 0.081900008 0.81900007
-0.26598001 0.081900008 0.81900007
-0.26442003 0.081900008 0.81900007
-0.26221809 0.081700005 0.81700003
-0.26002383 0.081500001 0.81500006
-0.25847146 0.081500001 0.81500006
-0.25691906 0.081500001 0.81500006
-0.25536668 0.081500001 0.81500006
-0.25350288 0.0814 0.81400001
-0.25195241 0.0814 0.81400001
-0.25040191 0.0814 0.81400001
-0.24824001 0.081200004 0.81200004
-0.24608572 0.081 0.81000006
-0.24393906 0.080800004 0.80800003
-0.24180001 0.080600001 0.80600005
-0.24026477 0.080600001 0.80600005
-0.23813714 0.080400005 0.80400002
-0.23542857 0.079999998 0.80000001
-0.23390476 0.079999998 0.80000001
-0.23238096 0.079999998 0.80000001
-0.23085715 0.079999998 0.80000001
-0.22933334 0.079999998 0.80000001
-0.22780952 0.079999998 0.80000001
-0.22572 0.079800002 0.79800004
-0.2242 0.079800002 0.79800004
-0.2232381 0.079999998 0.80000001
-0.22171429 0.079999998 0.80000001
-0.22019047 0.079999998 0.80000001
-0.21866667 0.079999998 0.80000001
-0.21822856 0.080400005 0.80400002
-0.21777524 0.080800004 0.80800003
-0.21677144 0.081 0.81000006
-0.21576001 0.081200004 0.81200004
-0.21421334 0.081200004 0.81200004
-0.21319048 0.0814 0.81400001
-0.21164 0.0814 0.81400001
-0.21034764 0.081500001 0.81500006
-0.20879525 0.081500001 0.81500006
-0.20826001 0.081900008 0.81900007
-0.20871904 0.082699999 0.82700002
-0.20764476 0.082900003 0.82900006
-0.20606573 0.082900003 0.82900006
-0.20498 0.083100006 0.83100003
-0.20388667 0.083300002 0.83300006
-0.20327142 0.083700001 0.83700001
-0.20215906 0.083899997 0.83900005
-0.20103905 0.084100001 0.84100002
-0.19943716 0.084100001 0.84100002
-0.1987762 0.084500007 0.84500003
-0.19716667 0.084500007 0.84500003
-0.19625144 0.084800005 0.84800005
-0.19509524 0.085000001 0.85000002
-0.19438666 0.085400008 0.85400003
-0.19321144 0.085600004 0.85600007
-0.19292381 0.086199999 0.86200005
-0.19128191 0.086199999 0.86200005
-0.19030002 0.086500004 0.86500007
-0.18908858 0.0867 0.86700004
-0.18786952 0.086900003 0.86900002
-0.18707143 0.087300003 0.87300003
-0.18583335 0.087500006 0.87500006
-0.18416668 0.087500006 0.87500006
-0.1831257 0.087800004 0.87800002
-0.18186668 0.088000007 0.88000005
-0.1806 0.088200003 0.88200003
-0.17993428 0.088700004 0.88700002
-0.17824475 0.088700004 0.88700002
-0.17735143 0.089099996 0.89100003
-0.17624572 0.089400001 0.89400005
-0.17493334 0.089600004 0.89600003
-0.17419334 0.090100005 0.90100002
-0.17286 0.090300001 0.90300006
-0.17151904 0.090499997 0.90500003
-0.17035811 0.090800002 0.90800005
-0.16862859 0.090800002 0.90800005
-0.16726667 0.091000006 0.91000003
-0.16644286 0.091500007 0.91500002
-0.16506 0.091700003 0.91700006
-0.16331333 0.091700003 0.91700006
-0.16209523 0.092 0.92000002
-0.16069144 0.092200004 0.92200005
-0.15945239 0.092500009 0.92500007
-0.15854287 0.09300001 0.93000007
-0.15795143 0.093699999 0.93700004
-0.15616667 0.093699999 0.93700004
-0.1548762 0.094000004 0.94000006
-0.15341143 0.0942 0.94200003
-0.15258285 0.09480001 0.94800007
-0.15236762 0.095800005 0.95800006
-0.15054286 0.095800005 0.95800006
-0.1487181 0.095800005 0.95800006
-0.14812 0.096599996 0.96600002
-0.14628001 0.096599996 0.96600002
-0.14488858 0.096900001 0.96900004
-0.14304286 0.096900001 0.96900004
-0.14163429 0.097200006 0.97200006
-0.13978286 0.097200006 0.97200006
-0.13821524 0.097400002 0.97400004
-0.1372 0.097999997 0.98000002
-0.13533334 0.097999997 0.98000002
-0.13346666 0.097999997 0.98000002
-0.13160001 0.097999997 0.98000002
-0.13039525 0.098500006 0.98500007
-0.12969334 0.099399999 0.99400002
-0.12857142 0.1 1
-0.12704667 0.1003 1.003
-0.12551048 0.1006 1.006
-0.12359428 0.1006 1.006
-0.1216781 0.1006 1.006
-0.12 0.1008 1.008
-0.11878286 0.10140001 1.0140001
-0.11719715 0.10170001 1.0170001
-0.11560001 0.10200001 1.0200001
-0.11365715 0.10200001 1.0200001
-0.11237143 0.1026 1.026
-0.11041714 0.1026 1.026
0.0308 0.097999997 0.98000002
0.032466665 0.097400002 0.97400004
0.034321908 0.097400002 0.97400004
0.03599143 0.096900001 0.96900004
0.037602857 0.096300006 0.96300006
0.039355241 0.096100003 0.96100003
0.041057147 0.095800005 0.95800006
0.04274762 0.0955 0.95500004
0.044473335 0.095300011 0.95300007
0.046288576 0.095300011 0.95300007
0.047952384 0.095000006 0.95000005
0.049657144 0.09480001 0.94800007
0.051462859 0.09480001 0.94800007
0.053268574 0.09480001 0.94800007
0.055074289 0.09480001 0.94800007
0.056700002 0.094500005 0.94500005
0.058500003 0.094500005 0.94500005
0.060108572 0.0942 0.94200003
0.061902858 0.0942 0.94200003
0.063697144 0.0942 0.94200003
0.06535238 0.094000004 0.94000006
0.067142867 0.094000004 0.94000006
0.068713337 0.093699999 0.93700004
0.070347622 0.093500003 0.93500006
0.072128579 0.093500003 0.93500006
0.073672384 0.093199998 0.93200004
0.075285718 0.09300001 0.93000007
0.077057146 0.09300001 0.93000007
0.078828573 0.09300001 0.93000007
0.080600001 0.09300001 0.93000007
0.082371436 0.09300001 0.93000007
0.084142864 0.09300001 0.93000007
0.085637145 0.092700005 0.92700005
0.087402858 0.092700005 0.92700005
0.089168578 0.092700005 0.92700005
0.090934284 0.092700005 0.92700005
0.092700005 0.092700005 0.92700005
0.094261907 0.092500009 0.92500007
0.096023813 0.092500009 0.92500007
0.097785726 0.092500009 0.92500007
0.099547625 0.092500009 0.92500007
0.10130953 0.092500009 0.92500007
0.10273715 0.092200004 0.92200005
0.10449333 0.092200004 0.92200005
0.10624953 0.092200004 0.92200005
0.10800572 0.092200004 0.92200005
0.10976191 0.092200004 0.92200005
0.11127619 0.092 0.92000002
0.11302857 0.092 0.92000002
0.11478096 0.092 0.92000002
0.11653333 0.092 0.92000002
0.11828572 0.092 0.92000002
0.12003809 0.092 0.92000002
0.12205524 0.092200004 0.92200005
0.12354286 0.092 0.92000002
0.12529524 0.092 0.92000002
0.12704763 0.092 0.92000002
0.12908001 0.092200004 0.92200005
0.13055238 0.092 0.92000002
0.13259238 0.092200004 0.92200005
0.13405715 0.092 0.92000002
0.13610476 0.092200004 0.92200005
0.13786097 0.092200004 0.92200005
0.13961715 0.092200004 0.92200005
0.14137334 0.092200004 0.92200005
0.14312953 0.092200004 0.92200005
0.14535716 0.092500009 0.92500007
0.14711905 0.092500009 0.92500007
0.14888096 0.092500009 0.92500007
0.15064287 0.092500009 0.92500007
0.15273428 0.092700005 0.92700005
0.15450001 0.092700005 0.92700005
0.15626572 0.092700005 0.92700005
0.15803143 0.092700005 0.92700005
0.15979715 0.092700005 0.92700005
0.16156286 0.092700005 0.92700005
0.16385716 0.09300001 0.93000007
0.16562858 0.09300001 0.93000007
0.16740002 0.09300001 0.93000007
0.16953525 0.093199998 0.93200004
0.17131048 0.093199998 0.93200004
0.17364287 0.093500003 0.93500006
0.17579906 0.093699999 0.93700004
0.17758381 0.093699999 0.93700004
0.17936857 0.093699999 0.93700004
0.18115334 0.093699999 0.93700004
0.18352382 0.094000004 0.94000006
0.1853143 0.094000004 0.94000006
0.18710476 0.094000004 0.94000006
0.18929715 0.0942 0.94200003
0.1917 0.094500005 0.94500005
0.19350001 0.094500005 0.94500005
0.19530001 0.094500005 0.94500005
0.19772573 0.09480001 0.94800007
0.20058383 0.095300011 0.95300007
0.20282382 0.0955 0.95500004
0.20528573 0.095800005 0.95800006
0.20711049 0.095800005 0.95800006
0.20893526 0.095800005 0.95800006
0.21142001 0.096100003 0.96100003
0.21325049 0.096100003 0.96100003
0.21508096 0.096100003 0.96100003
0.21691144 0.096100003 0.96100003
0.21874191 0.096100003 0.96100003
-0.30616668 0.085090473 0.83500004
-0.30457622 0.085090473 0.83500004
-0.30298573 0.085090473 0.83500004
-0.30067337 0.08488667 0.83300006
-0.29908669 0.08488667 0.83300006
-0.29678571 0.084682859 0.83100003
-0.29520285 0.084682859 0.83100003
-0.29362002 0.084682859 0.83100003
-0.29203716 0.084682859 0.83100003
-0.28975525 0.084479049 0.82900006
-0.28817621 0.084479049 0.82900006
-0.28659716 0.084479049 0.82900006
-0.28501812 0.084479049 0.82900006
-0.28343907 0.084479049 0.82900006
-0.28118002 0.084275246 0.82700002
-0.27892861 0.084071428 0.82500005
-0.27668476 0.083867624 0.82300001
-0.27511716 0.083867624 0.82300001
-0.27288479 0.083663814 0.82100004
-0.27132097 0.083663814 0.82100004
-0.26910001 0.083460003 0.81900007
-0.26754001 0.083460003 0.81900007
-0.26598001 0.083460003 0.81900007
-0.26442003 0.083460003 0.81900007
-0.26286003 0.083460003 0.81900007
-0.26002383 0.083052389 0.81500006
-0.25847146 0.083052389 0.81500006
-0.25691906 0.083052389 0.81500006
-0.25536668 0.083052389 0.81500006
-0.25350288 0.082950473 0.81400001
-0.25195241 0.082950473 0.81400001
-0.25040191 0.082950473 0.81400001
-0.24824001 0.08274667 0.81200004
-0.24608572 0.082542859 0.81000006
-0.24393906 0.082339048 0.80800003
-0.24240001 0.082339048 0.80800003
-0.24026477 0.082135238 0.80600005
-0.23813714 0.081931427 0.80400002
-0.23542857 0.081523806 0.80000001
-0.23390476 0.081523806 0.80000001
-0.23238096 0.081523806 0.80000001
-0.23085715 0.081523806 0.80000001
-0.22876 0.081320003 0.79800004
-0.22724 0.081320003 0.79800004
-0.22572 0.081320003 0.79800004
-0.2242 0.081320003 0.79800004
-0.2232381 0.081523806 0.80000001
-0.22171429 0.081523806 0.80000001
-0.22019047 0.081523806 0.80000001
-0.21866667 0.081523806 0.80000001
-0.21822856 0.081931427 0.80400002
-0.21777524 0.082339048 0.80800003
-0.21677144 0.082542859 0.81000006
-0.21576001 0.08274667 0.81200004
-0.21421334 0.08274667 0.81200004
-0.21319048 0.082950473 0.81400001
-0.21164 0.082950473 0.81400001
-0.21034764 0.083052389 0.81500006
-0.20930763 0.083256193 0.81700003
-0.20826001 0.083460003 0.81900007
-0.2082143 0.084071428 0.82500005
-0.20714381 0.084275246 0.82700002
-0.20606573 0.084479049 0.82900006
-0.20498 0.084682859 0.83100003
-0.20388667 0.08488667 0.83300006
-0.20278572 0.085090473 0.83500004
-0.20215906 0.085498095 0.83900005
-0.20103905 0.085701905 0.84100002
-0.19943716 0.085701905 0.84100002
-0.1987762 0.086109526 0.84500003
-0.19716667 0.086109526 0.84500003
-0.19625144 0.086415246 0.84800005
-0.19509524 0.086619049 0.85000002
-0.19438666 0.087026671 0.85400003
-0.19321144 0.087230489 0.85600007
-0.19292381 0.087841913 0.86200005
-0.19128191 0.087841913 0.86200005
-0.19030002 0.088147625 0.86500007
-0.18908858 0.088351429 0.86700004
-0.18786952 0.088555239 0.86900002
-0.18707143 0.08896286 0.87300003
-0.18583335 0.089166671 0.87500006
-0.18479811 0.089472376 0.87800002
-0.18354288 0.089676194 0.88000005
-0.18228 0.089879997 0.88200003
-0.1806 0.089879997 0.88200003
-0.17932571 0.090083815 0.88400006
-0.17864667 0.090593338 0.88900006
-0.17735143 0.090797149 0.89100003
-0.17624572 0.091102861 0.89400005
-0.17493334 0.091306664 0.89600003
-0.17458001 0.092020005 0.90300006
-0.17324285 0.092223816 0.90500003
-0.17208764 0.092529528 0.90800005
-0.17035811 0.092529528 0.90800005
-0.16862859 0.092529528 0.90800005
-0.16726667 0.092733338 0.91000003
-0.16607906 0.093039051 0.91300005
-0.16506 0.093446672 0.91700006
-0.16331333 0.093446672 0.91700006
-0.16209523 0.093752384 0.92000002
-0.16034286 0.093752384 0.92000002
-0.15893523 0.093956195 0.92200005
-0.15854287 0.094771437 0.93000007
-0.15795143 0.095484763 0.93700004
-0.15616667 0.095484763 0.93700004
-0.1548762 0.095790483 0.94000006
-0.15341143 0.095994294 0.94200003
-0.1521 0.096300006 0.94500005
-0.1503 0.096300006 0.94500005
-0.15054286 0.097624764 0.95800006
-0.14812 0.098439999 0.96600002
-0.14628001 0.098439999 0.96600002
-0.14488858 0.098745719 0.96900004
-0.14348571 0.099051431 0.97200006
-0.14163429 0.099051431 0.97200006
-0.13978286 0.099051431 0.97200006
-0.13821524 0.099255241 0.97400004
-0.13636 0.099255241 0.97400004
-0.13533334 0.099866666 0.98000002
-0.13346666 0.099866666 0.98000002
-0.13160001 0.099866666 0.98000002
-0.12704667 0.10221048 1.003
-0.12551048 0.1025162 1.006
-0.12322572 0.10221048 1.003
-0.1216781 0.1025162 1.006
-0.12 0.10272 1.008
-0.11808 0.10272 1.008
-0.11719715 0.10363715 1.0170001
-0.11560001 0.10394286 1.0200001
-0.11365715 0.10394286 1.0200001
0.0308 0.099866666 0.98000002
0.03256667 0.099560961 0.97700006
0.03442762 0.099560961 0.97700006
0.036102857 0.099051431 0.97200006
0.037719999 0.098439999 0.96600002
0.039355241 0.097930476 0.96100003
0.041057147 0.097624764 0.95800006
0.04274762 0.097319052 0.95500004
0.044473335 0.097115248 0.95300007
0.046288576 0.097115248 0.95300007
0.047952384 0.096809521 0.95000005
0.049657144 0.096605718 0.94800007
0.051462859 0.096605718 0.94800007
0.053268574 0.096605718 0.94800007
0.055074289 0.096605718 0.94800007
0.056700002 0.096300006 0.94500005
0.058500003 0.096300006 0.94500005
0.060108572 0.095994294 0.94200003
0.06177143 0.095790483 0.94000006
0.063697144 0.095994294 0.94200003
0.06535238 0.095790483 0.94000006
0.067142867 0.095790483 0.94000006
0.068713337 0.095484763 0.93700004
0.070498094 0.095484763 0.93700004
0.072128579 0.09528096 0.93500006
0.073672384 0.094975241 0.93200004
0.075285718 0.094771437 0.93000007
0.077057146 0.094771437 0.93000007
0.078828573 0.094771437 0.93000007
0.080600001 0.094771437 0.93000007
0.082371436 0.094771437 0.93000007
0.084142864 0.094771437 0.93000007
0.085637145 0.094465718 0.92700005
0.087402858 0.094465718 0.92700005
0.089168578 0.094465718 0.92700005
0.090934284 0.094465718 0.92700005
0.092700005 0.094465718 0.92700005
0.094261907 0.094261907 0.92500007
0.096023813 0.094261907 0.92500007
0.097785726 0.094261907 0.92500007
0.099547625 0.094261907 0.92500007
0.10130953 0.094261907 0.92500007
0.10273715 0.093956195 0.92200005
0.10449333 0.093956195 0.92200005
0.10624953 0.093956195 0.92200005
0.10800572 0.093956195 0.92200005
0.10976191 0.093956195 0.92200005
0.11127619 0.093752384 0.92000002
0.11302857 0.093752384 0.92000002
0.11478096 0.093752384 0.92000002
0.11653333 0.093752384 0.92000002
0.11828572 0.093752384 0.92000002
0.12003809 0.093752384 0.92000002
0.12179048 0.093752384 0.92000002
0.12354286 0.093752384 0.92000002
0.12556763 0.093956195 0.92200005
0.12732381 0.093956195 0.92200005
0.12908001 0.093956195 0.92200005
0.13083619 0.093956195 0.92200005
0.13259238 0.093956195 0.92200005
0.13434859 0.093956195 0.92200005
0.13610476 0.093956195 0.92200005
0.13786097 0.093956195 0.92200005
0.13961715 0.093956195 0.92200005
0.14137334 0.093956195 0.92200005
0.14312953 0.093956195 0.92200005
0.14535716 0.094261907 0.92500007
0.14711905 0.094261907 0.92500007
0.14888096 0.094261907 0.92500007
0.15064287 0.094261907 0.92500007
0.15273428 0.094465718 0.92700005
0.15450001 0.094465718 0.92700005
0.15626572 0.094465718 0.92700005
0.15803143 0.094465718 0.92700005
0.15979715 0.094465718 0.92700005
0.16208573 0.094771437 0.93000007
0.16385716 0.094771437 0.93000007
0.16562858 0.094771437 0.93000007
0.16776001 0.094975241 0.93200004
0.17008096 0.09528096 0.93500006
0.17186192 0.09528096 0.93500006
0.17364287 0.09528096 0.93500006
0.17579906 0.095484763 0.93700004
0.17758381 0.095484763 0.93700004
0.17936857 0.095484763 0.93700004
0.18115334 0.095484763 0.93700004
0.1829381 0.095484763 0.93700004
0.1853143 0.095790483 0.94000006
0.18710476 0.095790483 0.94000006
0.18929715 0.095994294 0.94200003
0.1917 0.096300006 0.94500005
0.19350001 0.096300006 0.94500005
0.19530001 0.096300006 0.94500005
0.19814286 0.096809521 0.95000005
0.20100477 0.097319052 0.95500004
0.20282382 0.097319052 0.95500004
0.20528573 0.097624764 0.95800006
0.20711049 0.097624764 0.95800006
0.20893526 0.097624764 0.95800006
0.21142001 0.097930476 0.96100003
0.21325049 0.097930476 0.96100003
0.21440955 0.097624764 0.95800006
0.2162343 0.097624764 0.95800006
0.21805906 0.097624764 0.95800006
-0.30689999 0.086888574 0.83700001
-0.30457622 0.086680956 0.83500004
-0.30226001 0.086473338 0.83300006
-0.30067337 0.086473338 0.83300006
-0.29908669 0.086473338 0.83300006
-0.29678571 0.086265713 0.83100003
-0.29520285 0.086265713 0.83100003
-0.29362002 0.086265713 0.83100003
-0.29203716 0.086265713 0.83100003
-0.28975525 0.086058103 0.82900006
-0.28817621 0.086058103 0.82900006
-0.28659716 0.086058103 0.82900006
-0.28501812 0.086058103 0.82900006
-0.28343907 0.086058103 0.82900006
-0.28118002 0.085850477 0.82700002
-0.27892861 0.085642859 0.82500005
-0.27668476 0.085435241 0.82300001
-0.27511716 0.085435241 0.82300001
-0.27288479 0.085227624 0.82100004
-0.27132097 0.085227624 0.82100004
-0.26975715 0.085227624 0.82100004
-0.26754001 0.085020006 0.81900007
-0.26598001 0.085020006 0.81900007
-0.26442003 0.085020006 0.81900007
-0.26286003 0.085020006 0.81900007
-0.2606619 0.08481238 0.81700003
-0.25847146 0.08460477 0.81500006
-0.25691906 0.08460477 0.81500006
-0.25536668 0.08460477 0.81500006
-0.25350288 0.084500946 0.81400001
-0.25195241 0.084500946 0.81400001
-0.25040191 0.084500946 0.81400001
-0.24824001 0.084293336 0.81200004
-0.24669334 0.084293336 0.81200004
-0.24454287 0.084085725 0.81000006
-0.24240001 0.0838781 0.80800003
-0.24026477 0.083670482 0.80600005
-0.23872954 0.083670482 0.80600005
-0.23601715 0.083255246 0.80200005
-0.23390476 0.083047621 0.80000001
-0.23238096 0.083047621 0.80000001
-0.23085715 0.083047621 0.80000001
-0.22876 0.082840003 0.79800004
-0.22724 0.082840003 0.79800004
-0.22572 0.082840003 0.79800004
-0.2242 0.082840003 0.79800004
-0.22268 0.082840003 0.79800004
-0.22171429 0.083047621 0.80000001
-0.22019047 0.083047621 0.80000001
-0.21866667 0.083047621 0.80000001
-0.21822856 0.083462857 0.80400002
-0.21777524 0.0838781 0.80800003
-0.21677144 0.084085725 0.81000006
-0.21576001 0.084293336 0.81200004
-0.21421334 0.084293336 0.81200004
-0.21319048 0.084500946 0.81400001
-0.21164 0.084500946 0.81400001
-0.21034764 0.08460477 0.81500006
-0.20930763 0.08481238 0.81700003
-0.20876859 0.085227624 0.82100004
-0.20770952 0.085435241 0.82300001
-0.20664287 0.085642859 0.82500005
-0.20556857 0.085850477 0.82700002
-0.20498 0.086265713 0.83100003
-0.20388667 0.086473338 0.83300006
-0.20278572 0.086680956 0.83500004
-0.20215906 0.087096192 0.83900005
-0.20103905 0.08730381 0.84100002
-0.19943716 0.08730381 0.84100002
-0.1987762 0.087719053 0.84500003
-0.19716667 0.087719053 0.84500003
-0.19625144 0.08803048 0.84800005
-0.19509524 0.088238098 0.85000002
-0.19438666 0.088653341 0.85400003
-0.19321144 0.088860959 0.85600007
-0.19292381 0.089483812 0.86200005
-0.19128191 0.089483812 0.86200005
-0.19030002 0.089795247 0.86500007
-0.18908858 0.090002865 0.86700004
-0.18830191 0.0904181 0.87100005
-0.18707143 0.090625718 0.87300003
-0.18647048 0.091144763 0.87800002
-0.18479811 0.091144763 0.87800002
-0.18354288 0.091352388 0.88000005
-0.18186668 0.091352388 0.88000005
-0.1806 0.091559999 0.88200003
-0.17932571 0.091767631 0.88400006
-0.17824475 0.092079051 0.88700002
-0.17735143 0.092494287 0.89100003
-0.17624572 0.092805721 0.89400005
-0.17532381 0.093220957 0.89800006
-0.17496668 0.093947619 0.90500003
-0.17381716 0.094259053 0.90800005
-0.17208764 0.094259053 0.90800005
-0.17035811 0.094259053 0.90800005
-0.16900001 0.094466671 0.91000003
-0.16726667 0.094466671 0.91000003
-0.16644286 0.094985716 0.91500002
-0.16506 0.095193334 0.91700006
-0.16420382 0.095712386 0.92200005
-0.16209523 0.095504761 0.92000002
-0.16069144 0.095712386 0.92200005
-0.15893523 0.095712386 0.92200005
-0.15854287 0.096542865 0.93000007
-0.15761429 0.09706191 0.93500006
-0.15583335 0.09706191 0.93500006
-0.15438192 0.097269528 0.93700004
-0.15308572 0.097580954 0.94000006
-0.1521 0.098100007 0.94500005
-0.1503 0.098100007 0.94500005
-0.14628001 0.10027999 0.96600002
-0.14488858 0.10059143 0.96900004
-0.14348571 0.10090286 0.97200006
-0.14163429 0.10090286 0.97200006
-0.13935143 0.10059143 0.96900004
-0.13750573 0.10059143 0.96900004
-0.13636 0.10111047 0.97400004
-0.12322572 0.10412095 1.003
-0.1216781 0.10443239 1.006
-0.12 0.10464 1.008
-0.11808 0.10464 1.008
0.0308 0.10173333 0.98000002
0.03256667 0.10142191 0.97700006
0.03442762 0.10142191 0.97700006
0.036177143 0.10111047 0.97400004
0.037719999 0.10027999 0.96600002
0.039232384 0.09944953 0.95800006
0.040928572 0.099138096 0.95500004
0.042523809 0.098619051 0.95000005
0.044333335 0.098619051 0.95000005
0.046142858 0.098619051 0.95000005
0.047952384 0.098619051 0.95000005
0.049657144 0.098411433 0.94800007
0.051462859 0.098411433 0.94800007
0.053268574 0.098411433 0.94800007
0.055074289 0.098411433 0.94800007
0.056700002 0.098100007 0.94500005
0.058500003 0.098100007 0.94500005
0.0603 0.098100007 0.94500005
0.061902858 0.097788572 0.94200003
0.063697144 0.097788572 0.94200003
0.06535238 0.097580954 0.94000006
0.067142867 0.097580954 0.94000006
0.068933338 0.097580954 0.94000006
0.070498094 0.097269528 0.93700004
0.071897149 0.096750483 0.93200004
0.073672384 0.096750483 0.93200004
0.075285718 0.096542865 0.93000007
0.077057146 0.096542865 0.93000007
0.078828573 0.096542865 0.93000007
0.080600001 0.096542865 0.93000007
0.082371436 0.096542865 0.93000007
0.084142864 0.096542865 0.93000007
0.085637145 0.096231431 0.92700005
0.087402858 0.096231431 0.92700005
0.089168578 0.096231431 0.92700005
0.090934284 0.096231431 0.92700005
0.092700005 0.096231431 0.92700005
0.094261907 0.096023813 0.92500007
0.096023813 0.096023813 0.92500007
0.097785726 0.096023813 0.92500007
0.099547625 0.096023813 0.92500007
0.10130953 0.096023813 0.92500007
0.10273715 0.095712386 0.92200005
0.10449333 0.095712386 0.92200005
0.10624953 0.095712386 0.92200005
0.10800572 0.095712386 0.92200005
0.10976191 0.095712386 0.92200005
0.11127619 0.095504761 0.92000002
0.11302857 0.095504761 0.92000002
0.11478096 0.095504761 0.92000002
0.11653333 0.095504761 0.92000002
0.11828572 0.095504761 0.92000002
0.11964667 0.095193334 0.91700006
0.12179048 0.095504761 0.92000002
0.12354286 0.095504761 0.92000002
0.12556763 0.095712386 0.92200005
0.12704763 0.095504761 0.92000002
0.12908001 0.095712386 0.92200005
0.13083619 0.095712386 0.92200005
0.13259238 0.095712386 0.92200005
0.13434859 0.095712386 0.92200005
0.13654763 0.096023813 0.92500007
0.13830952 0.096023813 0.92500007
0.14007144 0.096023813 0.92500007
0.14183335 0.096023813 0.92500007
0.14359525 0.096023813 0.92500007
0.14535716 0.096023813 0.92500007
0.14711905 0.096023813 0.92500007
0.14920287 0.096231431 0.92700005
0.15064287 0.096023813 0.92500007
0.15273428 0.096231431 0.92700005
0.15450001 0.096231431 0.92700005
0.15626572 0.096231431 0.92700005
0.15803143 0.096231431 0.92700005
0.16031431 0.096542865 0.93000007
0.16208573 0.096542865 0.93000007
0.16385716 0.096542865 0.93000007
0.16598476 0.096750483 0.93200004
0.1683 0.09706191 0.93500006
0.17008096 0.09706191 0.93500006
0.17186192 0.09706191 0.93500006
0.17364287 0.09706191 0.93500006
0.17579906 0.097269528 0.93700004
0.17758381 0.097269528 0.93700004
0.17936857 0.097269528 0.93700004
0.18115334 0.097269528 0.93700004
0.1829381 0.097269528 0.93700004
0.1853143 0.097580954 0.94000006
0.18710476 0.097580954 0.94000006
0.18929715 0.097788572 0.94200003
0.19109143 0.097788572 0.94200003
0.19350001 0.098100007 0.94500005
0.19592002 0.098411433 0.94800007
0.19876859 0.098930478 0.95300007
0.20163621 0.09944953 0.95800006
0.20346096 0.09944953 0.95800006
0.20592858 0.09976095 0.96100003
0.20711049 0.09944953 0.95800006
0.20893526 0.09944953 0.95800006
0.21076001 0.09944953 0.95800006
0.21325049 0.09976095 0.96100003
0.21440955 0.09944953 0.95800006
0.2162343 0.09944953 0.95800006
0.21805906 0.09944953 0.95800006
-0.30689999 0.088482857 0.83700001
-0.30530572 0.088482857 0.83700001
-0.30298573 0.088271432 0.83500004
-0.30067337 0.088060006 0.83300006
-0.29908669 0.088060006 0.83300006
-0.29678571 0.087848574 0.83100003
-0.29520285 0.087848574 0.83100003
-0.29362002 0.087848574 0.83100003
-0.29203716 0.087848574 0.83100003
-0.28975525 0.087637149 0.82900006
-0.28817621 0.087637149 0.82900006
-0.28659716 0.087637149 0.82900006
-0.28501812 0.087637149 0.82900006
-0.28275523 0.087425716 0.82700002
-0.28050002 0.087214291 0.82500005
-0.27892861 0.087214291 0.82500005
-0.27735713 0.087214291 0.82500005
-0.27511716 0.087002859 0.82300001
-0.2735495 0.087002859 0.82300001
-0.27132097 0.086791433 0.82100004
-0.26975715 0.086791433 0.82100004
-0.26819336 0.086791433 0.82100004
-0.26598001 0.086580001 0.81900007
-0.26442003 0.086580001 0.81900007
-0.26286003 0.086580001 0.81900007
-0.2606619 0.086368576 0.81700003
-0.25847146 0.086157143 0.81500006
-0.25691906 0.086157143 0.81500006
-0.25505334 0.086051434 0.81400001
-0.25350288 0.086051434 0.81400001
-0.25195241 0.086051434 0.81400001
-0.25040191 0.086051434 0.81400001
-0.24824001 0.085840002 0.81200004
-0.24669334 0.085840002 0.81200004
-0.24454287 0.085628577 0.81000006
-0.24240001 0.085417144 0.80800003
-0.24026477 0.085205719 0.80600005
-0.23872954 0.085205719 0.80600005
-0.23601715 0.084782861 0.80200005
-0.23390476 0.084571429 0.80000001
-0.23238096 0.084571429 0.80000001
-0.23085715 0.084571429 0.80000001
-0.22876 0.084360003 0.79800004
-0.22724 0.084360003 0.79800004
-0.22572 0.084360003 0.79800004
-0.2242 0.084360003 0.79800004
-0.22268 0.084360003 0.79800004
-0.22171429 0.084571429 0.80000001
-0.22019047 0.084571429 0.80000001
-0.21866667 0.084571429 0.80000001
-0.21768571 0.084782861 0.80200005
-0.21777524 0.085417144 0.80800003
-0.21677144 0.085628577 0.81000006
-0.21576001 0.085840002 0.81200004
-0.21421334 0.085840002 0.81200004
-0.21319048 0.086051434 0.81400001
-0.21164 0.086051434 0.81400001
-0.21034764 0.086157143 0.81500006
-0.20930763 0.086368576 0.81700003
-0.20826001 0.086580001 0.81900007
-0.20770952 0.087002859 0.82300001
-0.20664287 0.087214291 0.82500005
-0.20556857 0.087425716 0.82700002
-0.20498 0.087848574 0.83100003
-0.20339714 0.087848574 0.83100003
-0.20230003 0.088060006 0.83300006
-0.20215906 0.088694289 0.83900005
-0.20103905 0.088905722 0.84100002
-0.19943716 0.088905722 0.84100002
-0.1987762 0.08932858 0.84500003
-0.19716667 0.08932858 0.84500003
-0.19625144 0.089645721 0.84800005
-0.19509524 0.089857146 0.85000002
-0.19438666 0.090280004 0.85400003
-0.19321144 0.090491436 0.85600007
-0.19292381 0.091125719 0.86200005
-0.19128191 0.091125719 0.86200005
-0.19030002 0.091442861 0.86500007
-0.18908858 0.091654293 0.86700004
-0.18830191 0.092077151 0.87100005
-0.18707143 0.092288569 0.87300003
-0.18647048 0.092817143 0.87800002
-0.18479811 0.092817143 0.87800002
-0.18354288 0.093028575 0.88000005
-0.18186668 0.093028575 0.88000005
-0.1806 0.09324 0.88200003
-0.17932571 0.093451433 0.88400006
-0.17824475 0.093768574 0.88700002
-0.17695335 0.093980007 0.88900006
-0.17624572 0.094508581 0.89400005
-0.17532381 0.094931439 0.89800006
-0.17458001 0.095460005 0.90300006
-0.17381716 0.095988572 0.90800005
-0.17208764 0.095988572 0.90800005
-0.17035811 0.095988572 0.90800005
-0.16900001 0.096200004 0.91000003
-0.16726667 0.096200004 0.91000003
-0.16680667 0.096940003 0.91700006
-0.16596001 0.09746857 0.92200005
-0.16420382 0.09746857 0.92200005
-0.16244763 0.09746857 0.92200005
-0.16069144 0.09746857 0.92200005
-0.15893523 0.09746857 0.92200005
-0.15854287 0.098314293 0.93000007
-0.15761429 0.098842859 0.93500006
-0.15616667 0.099054292 0.93700004
-0.15438192 0.099054292 0.93700004
-0.15341143 0.099582858 0.94200003
-0.1521 0.0999 0.94500005
-0.1503 0.0999 0.94500005
-0.14488858 0.10243715 0.96900004
-0.14348571 0.10275429 0.97200006
-0.14119714 0.10243715 0.96900004
-0.13935143 0.10243715 0.96900004
-0.13750573 0.10243715 0.96900004
0.0308 0.1036 0.98000002
0.03256667 0.10328286 0.97700006
0.03442762 0.10328286 0.97700006
0.036177143 0.10296572 0.97400004
0.037719999 0.10212 0.96600002
0.039232384 0.10127429 0.95800006
0.041057147 0.10127429 0.95800006
0.042523809 0.10042857 0.95000005
0.044333335 0.10042857 0.95000005
0.046288576 0.10074572 0.95300007
0.047952384 0.10042857 0.95000005
0.049657144 0.10021715 0.94800007
0.051571429 0.10042857 0.95000005
0.053380955 0.10042857 0.95000005
0.055074289 0.10021715 0.94800007
0.056880001 0.10021715 0.94800007
0.058500003 0.0999 0.94500005
0.0603 0.0999 0.94500005
0.062100001 0.0999 0.94500005
0.063697144 0.099582858 0.94200003
0.06549143 0.099582858 0.94200003
0.067142867 0.099371433 0.94000006
0.068933338 0.099371433 0.94000006
0.070498094 0.099054292 0.93700004
0.072128579 0.098842859 0.93500006
0.073672384 0.098525718 0.93200004
0.075447619 0.098525718 0.93200004
0.077222861 0.098525718 0.93200004
0.078828573 0.098314293 0.93000007
0.080600001 0.098314293 0.93000007
0.082371436 0.098314293 0.93000007
0.084142864 0.098314293 0.93000007
0.085637145 0.097997144 0.92700005
0.087402858 0.097997144 0.92700005
0.089168578 0.097997144 0.92700005
0.090738103 0.097785726 0.92500007
0.092500009 0.097785726 0.92500007
0.094261907 0.097785726 0.92500007
0.096023813 0.097785726 0.92500007
0.097785726 0.097785726 0.92500007
0.099547625 0.097785726 0.92500007
0.10130953 0.097785726 0.92500007
0.10273715 0.09746857 0.92200005
0.10449333 0.09746857 0.92200005
0.10624953 0.09746857 0.92200005
0.10800572 0.09746857 0.92200005
0.10976191 0.09746857 0.92200005
0.1115181 0.09746857 0.92200005
0.11302857 0.097257145 0.92000002
0.11478096 0.097257145 0.92000002
0.11653333 0.097257145 0.92000002
0.11828572 0.097257145 0.92000002
0.12003809 0.097257145 0.92000002
0.12179048 0.097257145 0.92000002
0.12354286 0.097257145 0.92000002
0.12556763 0.09746857 0.92200005
0.12732381 0.09746857 0.92200005
0.12908001 0.09746857 0.92200005
0.13083619 0.09746857 0.92200005
0.13259238 0.09746857 0.92200005
0.13434859 0.09746857 0.92200005
0.13610476 0.09746857 0.92200005
0.13830952 0.097785726 0.92500007
0.14007144 0.097785726 0.92500007
0.14137334 0.09746857 0.92200005
0.14312953 0.09746857 0.92200005
0.14535716 0.097785726 0.92500007
0.14711905 0.097785726 0.92500007
0.14920287 0.097997144 0.92700005
0.15064287 0.097785726 0.92500007
0.15273428 0.097997144 0.92700005
0.15450001 0.097997144 0.92700005
0.15626572 0.097997144 0.92700005
0.15854287 0.098314293 0.93000007
0.16031431 0.098314293 0.93000007
0.16208573 0.098314293 0.93000007
0.16420953 0.098525718 0.93200004
0.16598476 0.098525718 0.93200004
0.1683 0.098842859 0.93500006
0.17044477 0.099054292 0.93700004
0.17186192 0.098842859 0.93500006
0.17308572 0.098525718 0.93200004
0.17579906 0.099054292 0.93700004
0.17758381 0.099054292 0.93700004
0.17936857 0.099054292 0.93700004
0.18115334 0.099054292 0.93700004
0.1829381 0.099054292 0.93700004
0.1853143 0.099371433 0.94000006
0.18710476 0.099371433 0.94000006
0.18889524 0.099371433 0.94000006
0.19068573 0.099371433 0.94000006
0.19288573 0.099582858 0.94200003
0.19468001 0.099582858 0.94200003
0.19876859 0.10074572 0.95300007
0.20226763 0.10159143 0.96100003
0.20409811 0.10159143 0.96100003
0.20592858 0.10159143 0.96100003
0.20775905 0.10159143 0.96100003
0.20958953 0.10159143 0.96100003
0.21142001 0.10159143 0.96100003
0.21325049 0.10159143 0.96100003
0.21508096 0.10159143 0.96100003
0.21691144 0.10159143 0.96100003
-0.30603525 0.090292387 0.83900005
-0.30371141 0.090077139 0.83700001
-0.30139527 0.089861907 0.83500004
-0.29908669 0.089646667 0.83300006
-0.29678571 0.089431427 0.83100003
-0.29520285 0.089431427 0.83100003
-0.29362002 0.089431427 0.83100003
-0.2913343 0.089216195 0.82900006
-0.28975525 0.089216195 0.82900006
-0.28817621 0.089216195 0.82900006
-0.28659716 0.089216195 0.82900006
-0.28501812 0.089216195 0.82900006
-0.28275523 0.089000955 0.82700002
-0.28050002 0.088785723 0.82500005
-0.27892861 0.088785723 0.82500005
-0.27735713 0.088785723 0.82500005
-0.27511716 0.088570476 0.82300001
-0.2735495 0.088570476 0.82300001
-0.27132097 0.088355243 0.82100004
-0.26975715 0.088355243 0.82100004
-0.26819336 0.088355243 0.82100004
-0.26598001 0.088140003 0.81900007
-0.26442003 0.088140003 0.81900007
-0.26221809 0.087924771 0.81700003
-0.2606619 0.087924771 0.81700003
-0.25847146 0.087709531 0.81500006
-0.25691906 0.087709531 0.81500006
-0.25505334 0.087601908 0.81400001
-0.25350288 0.087601908 0.81400001
-0.25195241 0.087601908 0.81400001
-0.25040191 0.087601908 0.81400001
-0.24885143 0.087601908 0.81400001
-0.24669334 0.087386668 0.81200004
-0.24454287 0.087171435 0.81000006
-0.24240001 0.086956188 0.80800003
-0.24026477 0.086740956 0.80600005
-0.23872954 0.086740956 0.80600005
-0.23601715 0.086310484 0.80200005
-0.23390476 0.086095236 0.80000001
-0.23238096 0.086095236 0.80000001
-0.23085715 0.086095236 0.80000001
-0.22876 0.085880004 0.79800004
-0.22724 0.085880004 0.79800004
-0.22572 0.085880004 0.79800004
-0.2242 0.085880004 0.79800004
-0.22268 0.085880004 0.79800004
-0.22171429 0.086095236 0.80000001
-0.22019047 0.086095236 0.80000001
-0.21866667 0.086095236 0.80000001
-0.21822856 0.086525716 0.80400002
-0.21723621 0.086740956 0.80600005
-0.21623619 0.086956188 0.80800003
-0.21522859 0.087171435 0.81000006
-0.21421334 0.087386668 0.81200004
-0.21319048 0.087601908 0.81400001
-0.21164 0.087601908 0.81400001
-0.21034764 0.087709531 0.81500006
-0.20930763 0.087924771 0.81700003
-0.20826001 0.088140003 0.81900007
-0.20770952 0.088570476 0.82300001
-0.2061419 0.088570476 0.82300001
-0.20507143 0.088785723 0.82500005
-0.20448668 0.089216195 0.82900006
-0.20339714 0.089431427 0.83100003
-0.20278572 0.089861907 0.83500004
-0.20215906 0.090292387 0.83900005
-0.20056096 0.090292387 0.83900005
-0.19943716 0.090507619 0.84100002
-0.1987762 0.090938091 0.84500003
-0.19716667 0.090938091 0.84500003
-0.19625144 0.091260955 0.84800005
-0.19509524 0.091476195 0.85000002
-0.19438666 0.091906674 0.85400003
-0.19321144 0.092121907 0.85600007
-0.19292381 0.092767626 0.86200005
-0.19128191 0.092767626 0.86200005
-0.19030002 0.093090482 0.86500007
-0.18908858 0.093305722 0.86700004
-0.18830191 0.093736194 0.87100005
-0.18707143 0.093951426 0.87300003
-0.18583335 0.094166674 0.87500006
-0.18416668 0.094166674 0.87500006
-0.1831257 0.09448953 0.87800002
-0.18186668 0.094704762 0.88000005
-0.1806 0.094920002 0.88200003
-0.17932571 0.095135242 0.88400006
-0.17764191 0.095135242 0.88400006
-0.17655525 0.095458098 0.88700002
-0.17565429 0.095888577 0.89100003
-0.17493334 0.096426666 0.89600003
-0.17419334 0.096964762 0.90100002
-0.17324285 0.097395241 0.90500003
-0.17208764 0.097718097 0.90800005
-0.17035811 0.097718097 0.90800005
-0.16862859 0.097718097 0.90800005
-0.16726667 0.097933337 0.91000003
-0.16680667 0.098686673 0.91700006
-0.16596001 0.099224769 0.92200005
-0.16384763 0.099009521 0.92000002
-0.16209523 0.099009521 0.92000002
-0.16069144 0.099224769 0.92200005
-0.15859048 0.099009521 0.92000002
-0.1568381 0.099009521 0.92000002
-0.15761429 0.10062382 0.93500006
-0.15616667 0.10083905 0.93700004
-0.15438192 0.10083905 0.93700004
-0.15341143 0.10137715 0.94200003
-0.1521 0.1017 0.94500005
-0.1503 0.1017 0.94500005
-0.14163429 0.10460572 0.97200006
-0.13978286 0.10460572 0.97200006
0.039232384 0.10309905 0.95800006
0.041057147 0.10309905 0.95800006
0.042523809 0.1022381 0.95000005
0.044333335 0.1022381 0.95000005
0.046045717 0.10202286 0.94800007
0.047952384 0.1022381 0.95000005
0.049761906 0.1022381 0.95000005
0.051462859 0.10202286 0.94800007
0.053268574 0.10202286 0.94800007
0.055190481 0.1022381 0.95000005
0.056880001 0.10202286 0.94800007
0.05868572 0.10202286 0.94800007
0.0603 0.1017 0.94500005
0.062100001 0.1017 0.94500005
0.063697144 0.10137715 0.94200003
0.06549143 0.10137715 0.94200003
0.067142867 0.10116191 0.94000006
0.068933338 0.10116191 0.94000006
0.070498094 0.10083905 0.93700004
0.072128579 0.10062382 0.93500006
0.073672384 0.10030095 0.93200004
0.075447619 0.10030095 0.93200004
0.077057146 0.10008572 0.93000007
0.078828573 0.10008572 0.93000007
0.080600001 0.10008572 0.93000007
0.082371436 0.10008572 0.93000007
0.084142864 0.10008572 0.93000007
0.085637145 0.099762864 0.92700005
0.087402858 0.099762864 0.92700005
0.089168578 0.099762864 0.92700005
0.090738103 0.099547625 0.92500007
0.092200004 0.099224769 0.92200005
0.094261907 0.099547625 0.92500007
0.096023813 0.099547625 0.92500007
0.097785726 0.099547625 0.92500007
0.099547625 0.099547625 0.92500007
0.10130953 0.099547625 0.92500007
0.10273715 0.099224769 0.92200005
0.10449333 0.099224769 0.92200005
0.10624953 0.099224769 0.92200005
0.10800572 0.099224769 0.92200005
0.10976191 0.099224769 0.92200005
0.1115181 0.099224769 0.92200005
0.11302857 0.099009521 0.92000002
0.11478096 0.099009521 0.92000002
0.11716668 0.099547625 0.92500007
0.11828572 0.099009521 0.92000002
0.12003809 0.099009521 0.92000002
0.12179048 0.099009521 0.92000002
0.12354286 0.099009521 0.92000002
0.12556763 0.099224769 0.92200005
0.12704763 0.099009521 0.92000002
0.12908001 0.099224769 0.92200005
0.13083619 0.099224769 0.92200005
0.13259238 0.099224769 0.92200005
0.13434859 0.099224769 0.92200005
0.13610476 0.099224769 0.92200005
0.13786097 0.099224769 0.92200005
0.13961715 0.099224769 0.92200005
0.14137334 0.099224769 0.92200005
0.14312953 0.099224769 0.92200005
0.14535716 0.099547625 0.92500007
0.14711905 0.099547625 0.92500007
0.14920287 0.099762864 0.92700005
0.15064287 0.099547625 0.92500007
0.15273428 0.099762864 0.92700005
0.15450001 0.099762864 0.92700005
0.15626572 0.099762864 0.92700005
0.15854287 0.10008572 0.93000007
0.16031431 0.10008572 0.93000007
0.16208573 0.10008572 0.93000007
0.16385716 0.10008572 0.93000007
0.16598476 0.10030095 0.93200004
0.16776001 0.10030095 0.93200004
